ply
format ascii 1.0
element vertex 929
property float x
property float y
property float z
property uchar red
property uchar green
property uchar blue
end_header
-0.169367 -0.0219734 -0.353887 0 255 0
-0.128288 -0.0257225 -0.346642 0 255 0
-0.205692 -0.0302334 -0.351359 0 255 0
-0.200368 -0.044729 -0.360789 0 255 0
-0.170558 -0.0215988 -0.363058 0 255 0
-0.123309 -0.0223439 -0.360332 0 255 0
-0.114649 -0.0238987 -0.361797 0 255 0
-0.121815 -0.0251982 -0.368552 0 255 0
-0.169054 -0.0220671 -0.351503 0 255 0
-0.248599 -0.00108668 -0.131715 105 54 24
-0.232983 -0.069326 -0.139358 100 26 8
-0.216321 -0.0783844 -0.126723 65 53 16
-0.2026 0.0185221 -0.147555 80 52 46
-0.190046 -0.00979356 -0.152076 122 72 56
-0.162836 -0.0245245 -0.311315 74 38 18
-0.263273 -0.0643024 -0.161421 94 30 13
-0.262842 0.0013797 -0.142581 144 96 76
-0.256545 -0.0723784 -0.132096 150 146 94
-0.247988 -0.0484354 -0.147597 104 64 30
-0.21931 -0.0567072 -0.131471 121 74 59
-0.219222 -0.0565057 -0.132311 121 74 59
-0.214556 -0.0753217 -0.133351 74 64 28
-0.214323 -0.0543742 -0.128013 26 12 9
-0.144044 -0.0828989 -0.121419 158 152 103
-0.146434 -0.00010789 -0.115951 84 58 56
-0.143371 -0.0437936 -0.12161 180 146 130
-0.136133 -0.0586732 -0.140077 165 153 111
-0.131923 -0.0178597 -0.119187 12 10 8
-0.125252 -0.0482393 -0.118607 116 101 72
-0.123258 -0.0472554 -0.119989 128 105 92
-0.113303 -0.0517692 -0.122776 160 140 132
-0.107973 -0.0159845 -0.114912 149 124 100
-0.108978 -0.023977 -0.121869 182 156 138
-0.104191 -0.0532612 -0.112756 20 14 10
-0.108205 -0.0294386 -0.12414 132 88 68
-0.100386 0.00581351 -0.105835 44 22 12
-0.28523 0.00334826 -0.191501 154 102 44
-0.276059 -0.0707796 -0.169492 164 115 88
-0.280878 -0.0360602 -0.152522 89 49 40
-0.259814 -0.0402284 -0.160678 92 52 26
-0.256218 -0.0373567 -0.164488 150 97 72
-0.262562 -0.000492387 -0.145698 78 32 14
-0.246739 -0.039057 -0.165587 128 78 53
-0.261792 -0.0553705 -0.111548 146 138 105
-0.25065 -0.0587078 -0.113567 106 70 42
-0.236034 -0.0748067 -0.13779 170 113 90
-0.232984 -0.0727627 -0.141392 169 106 83
-0.225748 -0.0389121 -0.133638 96 53 39
-0.211579 -0.053148 -0.130351 77 50 22
-0.204785 0.0186246 -0.15035 65 24 18
-0.196329 0.00603102 -0.167752 66 53 48
-0.183939 0.00752345 -0.163279 139 122 116
-0.183198 0.00613266 -0.16443 78 60 56
-0.182126 0.00607292 -0.16423 94 80 74
-0.145315 -0.0200892 -0.104963 173 133 116
-0.144944 -0.0192196 -0.103537 109 69 50
-0.144131 -0.0679515 -0.132961 94 66 32
-0.142155 -0.0453382 -0.122112 172 144 126
-0.140865 -0.0448101 -0.12131 146 117 101
-0.138742 -0.0448851 -0.119046 158 121 104
-0.138528 -0.0663618 -0.142854 144 127 117
-0.138045 0.00236883 -0.109838 198 175 168
-0.138687 0.00205662 -0.113212 198 175 168
-0.137582 -0.0725139 -0.14994 142 100 74
-0.137645 -0.0725398 -0.150246 142 100 74
-0.13669 -0.0610666 -0.143121 146 118 102
-0.13226 -0.06007 -0.111249 168 150 107
-0.133431 0.00498234 -0.0959292 232 218 210
-0.130714 -0.0412738 -0.103506 53 62 37
-0.134161 -0.000218412 -0.114989 148 112 100
-0.134623 0.00906558 -0.118544 162 132 126
-0.133228 0.00589807 -0.116839 171 142 137
-0.13405 -0.0682328 -0.150803 99 53 28
-0.134015 -0.0675443 -0.151811 145 98 73
-0.133114 -0.0621732 -0.146569 117 11 9
-0.132084 -0.0633616 -0.151736 146 118 109
-0.128733 0.00482836 -0.12162 86 90 80
-0.123142 -0.0473171 -0.119395 127 105 92
-0.128047 -0.0656381 -0.152523 160 135 128
-0.124557 0.00813622 -0.121617 118 43 34
-0.115564 -0.0317101 -0.127268 13 9 10
-0.117443 -0.0584204 -0.152572 157 130 125
-0.106515 -0.0178982 -0.119237 180 153 134
-0.112487 -0.0578128 -0.15678 124 106 102
-0.305716 -0.0100613 -0.202465 170 142 119
-0.297535 -0.0202579 -0.20822 162 140 119
-0.305018 0.00349756 -0.191639 160 135 120
-0.301724 0.0118678 -0.18917 148 24 24
-0.26986 -0.0337261 -0.21982 124 16 14
-0.282973 -0.0110066 -0.203311 24 19 29
-0.268991 -0.0288779 -0.218164 124 17 17
-0.282794 -0.0115566 -0.200926 22 18 33
-0.274825 -0.00374776 -0.199112 127 20 21
-0.28478 0.00581517 -0.185099 115 24 17
-0.289082 0.00126507 -0.177154 160 140 125
-0.286237 0.00983038 -0.181933 116 16 14
-0.284691 0.00759528 -0.183081 154 132 120
-0.297345 -0.0599001 -0.143978 120 112 74
-0.287826 -0.0475388 -0.15975 209 154 122
-0.287002 -0.0390639 -0.155862 152 126 110
-0.304566 -0.0410635 -0.124785 78 43 24
-0.280617 -0.0646686 -0.1598 55 26 16
-0.300248 -0.0473324 -0.126308 105 60 42
-0.276468 -0.0768397 -0.135057 135 100 69
-0.259966 -0.0347058 -0.166617 156 104 81
-0.25096 -0.0585048 -0.112892 107 66 38
-0.261073 -0.0664093 -0.0755395 118 80 44
-0.237514 -0.0627243 -0.128997 168 121 86
-0.227848 -0.0697236 -0.136827 178 103 80
-0.227848 -0.0697236 -0.136827 178 103 80
-0.223368 -0.0778334 -0.140037 110 68 44
-0.226439 -0.0391796 -0.131474 94 48 31
-0.213884 -0.0607514 -0.127742 151 136 100
-0.201573 -0.00462138 -0.203334 160 136 124
-0.211691 0.002706 -0.154675 94 70 62
-0.204793 -0.000360122 -0.171751 100 74 64
-0.197626 0.0175588 -0.180104 164 134 134
-0.187158 -0.00352725 -0.232217 92 79 71
-0.198266 0.0180211 -0.15091 170 155 156
-0.198341 0.01893 -0.150526 60 33 32
-0.193732 0.0055124 -0.162877 74 61 54
-0.184383 -0.00570103 -0.235152 152 140 135
-0.193188 0.0226887 -0.15237 158 127 128
-0.188151 0.00373374 -0.162394 54 37 22
-0.173088 -0.00579255 -0.215254 154 136 119
-0.173483 0.00428118 -0.146107 80 62 52
-0.173247 0.00384439 -0.142379 151 136 120
-0.172203 -0.00415635 -0.209368 151 136 120
-0.17122 0.00167095 -0.18164 87 60 49
-0.17122 0.00167095 -0.18164 87 60 49
-0.136684 -0.0920105 -0.0542843 116 75 40
-0.142587 -0.0787736 -0.130926 149 125 100
-0.146863 -0.0770564 -0.17308 100 66 29
-0.146863 -0.0770564 -0.17308 100 66 29
-0.145027 -0.075361 -0.163246 151 132 112
-0.14505 -0.0631298 -0.154908 158 132 113
-0.148907 -0.0425808 -0.19041 162 153 106
-0.125241 -0.0553242 0.00387244 105 67 46
-0.140342 -0.0721254 -0.143044 153 129 110
-0.146603 -0.0401171 -0.184513 116 41 19
-0.169054 -0.0220671 -0.351503 164 152 132
-0.148255 -0.0357142 -0.197751 158 116 96
-0.136265 -0.0541958 -0.11669 199 145 120
-0.13878 -0.0672749 -0.1442 95 88 72
-0.135792 -0.0512186 -0.116481 100 43 28
-0.153312 -0.0331899 -0.248921 168 154 117
-0.151857 -0.0336431 -0.240002 60 40 6
-0.151857 -0.0336431 -0.240002 60 40 6
-0.152359 -0.032879 -0.243611 156 149 108
-0.133567 -0.0684454 -0.135903 160 133 120
-0.149397 -0.0186349 -0.224379 127 104 93
-0.124351 -0.0808689 -0.0948825 107 62 36
-0.125638 -0.0781648 -0.103631 163 114 90
-0.144878 -0.0088379 -0.202417 178 156 148
-0.131207 -0.0671333 -0.146443 151 116 102
-0.129747 -0.0188331 -0.121297 42 16 6
-0.130782 0.00564239 -0.121588 161 100 83
-0.133204 -0.0557139 -0.159318 136 96 76
-0.128738 -0.0185962 -0.119448 44 20 8
-0.12384 -0.0492803 -0.115296 98 100 81
-0.128417 -0.0727096 -0.150153 124 6 6
-0.127678 -0.0546874 -0.145332 94 62 34
-0.136073 -0.0479418 -0.193509 122 80 61
-0.137179 -0.0349942 -0.195075 193 163 152
-0.136866 -0.00885688 -0.192327 112 65 42
-0.136863 -0.00727896 -0.192379 128 82 63
-0.115047 -0.0473502 -0.0985795 112 18 11
-0.12113 -0.036131 -0.13104 118 108 106
-0.122191 -0.0552575 -0.150266 160 134 124
-0.127803 -0.0734402 -0.181861 152 96 74
-0.12381 -0.0445553 -0.157176 126 16 14
-0.111815 -0.0434156 -0.104992 126 30 9
-0.123226 -0.0456205 -0.15676 162 134 122
-0.130585 -0.0291787 -0.186841 14 8 13
-0.135244 -0.00309761 -0.20249 137 46 36
-0.116924 -0.0304889 -0.129962 103 78 81
-0.11782 -0.0398336 -0.138788 168 91 64
-0.119478 -0.0573487 -0.151289 200 175 164
-0.127282 -0.0332927 -0.179927 26 8 3
-0.112736 -0.0403342 -0.120742 96 38 16
-0.126156 -0.0194662 -0.173017 22 14 9
-0.118451 -0.0564929 -0.151574 72 46 38
-0.12225 -0.0313309 -0.161195 28 13 9
-0.129348 -0.0270714 -0.190263 116 88 86
-0.114728 -0.034459 -0.13163 33 12 4
-0.141742 -0.0194473 -0.240361 112 89 70
-0.133134 -0.0185233 -0.204384 122 95 69
-0.119447 -0.0345018 -0.15279 136 84 60
-0.116955 -0.0284066 -0.141347 54 25 20
-0.108502 -0.0633912 -0.116141 210 190 180
-0.11209 -0.0889339 -0.138523 200 148 120
-0.121759 -0.0266065 -0.161185 48 20 15
-0.115791 -0.0583997 -0.147065 123 102 94
-0.110112 -0.0107648 -0.111864 203 183 172
-0.113332 -0.0601398 -0.140068 153 132 124
-0.117063 -0.0590555 -0.154923 52 30 20
-0.111237 0.011573 -0.11391 166 146 136
-0.111654 -0.0360295 -0.129441 117 46 17
-0.136233 -0.0188773 -0.223486 140 116 90
-0.108419 -0.0211064 -0.113554 152 126 104
-0.11603 -0.0589983 -0.154515 132 110 101
-0.0898679 -0.0720657 -0.0552018 98 78 68
-0.129764 -0.032723 -0.202502 134 96 72
-0.127447 -0.0343577 -0.194617 26 15 12
-0.132533 -0.00692256 -0.209198 188 158 142
-0.11195 -0.0626184 -0.142698 78 56 48
-0.124598 -0.0433805 -0.186664 62 40 29
-0.133753 -0.000501706 -0.213652 124 94 80
-0.111148 -0.0319771 -0.133954 146 76 47
-0.109381 -0.0346631 -0.128187 188 118 92
-0.11157 -0.0617263 -0.143666 228 210 206
-0.131768 -0.00838743 -0.211662 150 93 76
-0.114878 0.00817227 -0.143974 118 88 72
-0.0990465 -0.0494565 -0.0988317 166 146 112
-0.128083 -0.0380685 -0.205344 166 146 112
-0.129408 -0.0345237 -0.209905 148 144 98
-0.118322 -0.0534004 -0.174802 169 150 148
-0.126185 -0.0156267 -0.196814 148 126 106
-0.121938 -0.0324423 -0.187261 146 90 60
-0.130809 -0.0272661 -0.217702 162 138 110
-0.0857255 -0.0707663 -0.068234 237 228 226
-0.12038 -0.0135041 -0.179485 39 16 8
-0.0991886 -0.0616823 -0.118806 158 140 134
-0.0888176 -0.0786309 -0.0877824 216 205 202
-0.133049 -0.0166248 -0.22796 128 83 54
-0.114707 -0.00143625 -0.160733 110 76 54
-0.0945822 -0.0623826 -0.106972 200 186 184
-0.106193 -0.0564792 -0.145428 200 186 184
-0.0899084 -0.077294 -0.0977445 226 204 191
-0.103343 -0.0708365 -0.142809 154 114 96
-0.0956174 -0.080383 -0.125194 45 38 22
-0.277954 -0.0293504 -0.20916 58 13 15
-0.231076 -0.0375204 -0.146406 146 100 77
-0.227671 -0.0767441 -0.140075 169 112 89
-0.221628 -0.0703478 -0.137708 31 12 5
-0.202668 0.0226994 -0.149471 192 160 154
-0.196073 0.00652406 -0.162559 184 164 160
-0.186128 0.00667184 -0.156359 194 174 166
-0.118392 -0.058478 -0.151907 127 100 89
-0.102488 -0.0518963 -0.111948 80 54 43
-0.10329 -0.0355923 -0.128155 178 150 129
-0.10329 -0.0355923 -0.128155 178 150 129
-0.301191 0.00984669 -0.191228 148 27 22
-0.291892 0.00102073 -0.198572 54 2 4
-0.285693 -0.0140011 -0.20226 26 16 26
-0.284564 -0.010347 -0.202399 109 102 113
-0.284488 -0.0135993 -0.202048 121 114 120
-0.283415 -0.0122774 -0.202513 20 17 28
-0.283648 -0.0113471 -0.19872 121 116 121
-0.291942 0.00349485 -0.187101 122 62 16
-0.276885 -0.0276676 -0.202519 162 146 128
-0.294916 0.0173398 -0.181249 73 4 5
-0.272794 -0.0721433 -0.168537 48 20 7
-0.284291 -0.0354404 -0.152027 72 32 18
-0.23527 -0.0354849 -0.15721 82 29 13
-0.235785 -0.0885868 -0.121881 58 41 11
-0.121123 -0.0434896 -0.134913 168 77 52
-0.118961 -0.0391119 -0.134128 168 76 46
-0.114408 -0.0868482 -0.137868 128 6 6
-0.109002 -0.09074 -0.133472 113 64 36
-0.109053 -0.0902333 -0.13524 113 64 36
-0.11568 -0.0659436 -0.157251 253 238 230
-0.292021 -0.0140994 -0.211338 156 104 42
-0.287666 -0.0297388 -0.214812 184 136 129
-0.291196 -0.0248978 -0.210866 144 35 32
-0.294826 0.00186814 -0.199949 120 18 18
-0.291864 -0.00179141 -0.200606 30 16 24
-0.281927 -0.00987604 -0.198439 113 103 112
-0.293648 0.0170882 -0.182971 68 6 6
-0.284791 -1.78695e-05 -0.189556 143 90 34
-0.235319 -0.0355118 -0.156989 77 24 6
-0.174202 0.00615215 -0.13897 128 112 104
-0.099119 -0.0599573 9.66468e-05 83 52 39
-0.125878 0.00903446 -0.125325 194 144 110
-0.125878 0.00903446 -0.125325 194 144 110
-0.111343 -0.0126806 -0.117071 160 121 104
-0.110653 -0.0898072 -0.136633 118 64 34
-0.106731 0.003868 -0.120563 180 126 108
-0.33649 -0.0207435 -0.160995 117 22 12
-0.28863 -0.0299186 -0.214915 187 154 146
-0.323157 -0.0114822 -0.170037 110 8 12
-0.282234 -0.0100296 -0.204457 16 12 24
-0.615922 0.0974014 0.238902 92 18 10
-1.59325 0.183897 1.95173 161 136 117
-0.264204 -0.0245396 -0.195247 144 19 25
-0.261774 -0.0245011 -0.199272 144 19 25
-0.259335 -0.0238003 -0.182277 183 136 112
-0.256059 -0.0267285 -0.17672 176 126 100
-0.251044 -0.0562843 -0.181368 159 141 100
-0.255145 -0.0283396 -0.171894 109 62 39
-0.257659 -0.0306412 -0.162633 169 107 86
-0.251433 -0.0431491 -0.163159 98 55 23
-0.221831 -0.0413003 -0.206934 92 50 22
-0.226877 -0.0301746 -0.194399 88 38 22
-0.226146 -0.0295945 -0.19422 163 106 86
-0.194729 -0.0487491 -0.247149 97 58 37
-0.194729 -0.0487491 -0.247149 97 58 37
-0.191764 -0.00865461 -0.240807 96 70 60
-0.191505 -0.0078293 -0.241133 102 74 66
-0.189312 -0.00951187 -0.247538 98 71 59
-0.197628 -0.000998941 -0.196986 154 34 28
-0.193214 -0.00719773 -0.219908 146 108 98
-0.181453 -0.00315695 -0.226978 168 130 118
-0.172268 -0.0106508 -0.269661 91 74 64
-0.172268 -0.0106508 -0.269661 91 74 64
-0.17178 -0.0107576 -0.267381 132 117 109
-0.144898 -0.0488298 -0.179211 128 75 32
-0.0499427 -0.039934 0.118773 64 16 8
-0.14609 -0.0479999 -0.268915 179 126 103
-0.150239 -0.0277107 -0.281123 24 17 16
-0.0901717 -0.0733294 -0.0632088 170 151 146
-0.151891 -0.0282286 -0.29061 98 76 68
-0.145277 -0.0465134 -0.271086 148 108 74
-0.150124 -0.030206 -0.285301 112 84 66
-0.11363 -0.0772255 -0.164299 44 25 10
0.438027 -0.441395 1.66901 202 186 182
-0.045682 -0.0920745 0.0599843 137 118 112
-0.110276 -0.0154215 -0.107466 143 117 93
-0.142664 -0.0228823 -0.165832 152 110 86
-0.156216 -0.0350983 -0.27206 158 146 98
-0.213438 -0.0367674 -0.181932 154 104 78
-0.207068 6.83582e-05 -0.16351 89 63 52
-0.152089 -0.0188698 -0.0467753 156 113 89
-0.123745 -0.0169859 -0.0911204 185 160 144
-0.29797 -0.0122972 -0.220775 151 52 66
-0.296001 -0.0142737 -0.220077 161 112 55
-0.295022 -0.0115184 -0.213879 131 80 30
-0.29444 -0.0211861 -0.209195 116 16 13
-0.292345 -0.0193565 -0.212341 147 92 29
-0.290803 -0.0145389 -0.213768 160 110 51
-0.291748 -0.00887662 -0.211753 139 31 30
-0.288053 -0.0341779 -0.214713 148 13 14
-0.286467 -0.0301769 -0.217174 183 152 147
-0.287527 -0.0283716 -0.215053 68 24 19
-0.295779 -0.00026718 -0.202497 124 16 12
-0.307138 0.00558342 -0.183028 162 124 112
-0.288991 -0.0132059 -0.211391 99 4 0
-0.284793 -0.0400292 -0.214549 158 142 125
-0.284483 -0.0323545 -0.215262 183 74 77
-0.292081 0.00202695 -0.202289 126 18 20
-0.281486 -0.0435149 -0.214992 20 28 72
-0.330638 -0.0427236 -0.126273 24 23 64
-0.288824 -0.00163653 -0.203428 31 20 34
-0.295702 0.0112541 -0.192014 143 12 18
-0.289873 -0.000117869 -0.200999 88 57 68
-0.289764 0.00124782 -0.199935 72 6 6
-0.289877 0.00242083 -0.199575 146 90 50
-0.283443 -0.0140809 -0.204318 118 108 114
-0.283744 -0.0102073 -0.20313 120 112 122
-0.283618 -0.0103255 -0.203357 120 112 122
-0.283507 -0.00974056 -0.202917 22 18 32
-0.283272 -0.0108028 -0.202921 29 24 34
-0.283464 -0.0107399 -0.202574 29 24 34
-0.28218 -0.0132273 -0.204515 126 120 126
-0.282626 -0.0129718 -0.203684 126 120 126
-0.28261 -0.0123708 -0.203249 25 20 31
-0.276812 -0.0292828 -0.211874 158 143 145
-0.277214 -0.029175 -0.211283 158 143 145
-0.292134 0.00645522 -0.186332 78 8 8
-0.281507 -0.0142469 -0.204131 22 18 31
-0.282534 -0.0114841 -0.202835 22 20 38
-0.278413 -0.0348703 -0.207876 122 18 16
-0.276551 -0.0288391 -0.210215 49 18 16
-0.282677 -0.0109062 -0.200222 23 20 36
-0.281775 -0.0108875 -0.20034 128 124 132
-0.281775 -0.0108875 -0.20034 128 124 132
-0.286565 0.0041775 -0.188996 158 104 44
-0.281126 -0.0235303 -0.195161 86 13 10
-0.288603 0.0109758 -0.184076 151 85 32
-0.283419 -0.000133153 -0.192204 130 24 18
-0.282906 -0.000291562 -0.191337 149 86 58
-0.288366 0.0125325 -0.176035 126 12 11
-0.281703 -0.00185103 -0.187577 130 22 22
-0.28104 -0.00218599 -0.18898 130 22 22
-0.288073 -0.0327608 -0.168801 158 143 123
-0.288535 -0.0508337 -0.159449 160 143 122
-0.289069 -0.0447624 -0.158765 167 142 121
-0.286974 -0.0506236 -0.159345 34 12 8
-0.287466 -0.0451527 -0.157637 37 8 5
-0.278285 -0.0616707 -0.171228 125 84 66
-0.277958 -0.0677805 -0.170208 48 22 10
-0.277163 -0.066324 -0.171413 32 14 8
-0.277163 -0.066324 -0.171413 32 14 8
-0.28765 -0.0350441 -0.150946 162 136 115
-0.276912 -0.0695024 -0.170399 118 76 53
-0.27222 -0.0235399 -0.188912 161 118 60
-0.271083 -0.0236789 -0.186246 138 7 14
-0.284022 -0.0342033 -0.148674 72 32 16
-0.284665 -0.00501018 -0.149437 196 151 130
-0.284665 -0.00501018 -0.149437 196 151 130
-0.278142 -0.0512815 -0.157416 106 55 40
-0.271976 -0.0682155 -0.169437 49 22 14
-0.278852 -0.0368019 -0.157585 58 22 17
-0.280041 -0.0366605 -0.154489 58 22 17
-0.271546 -0.0666796 -0.167719 60 22 10
-0.283555 0.00131369 -0.144548 126 78 56
-0.26118 -0.0350136 -0.162135 156 106 80
-0.261024 -0.0411825 -0.159666 129 89 64
-0.259152 -0.0355045 -0.162661 120 68 49
-0.258578 -0.0286739 -0.16256 100 56 36
-0.263351 0.00159632 -0.140767 140 92 73
-0.261195 0.004419 -0.139547 101 54 39
-0.25984 -0.0471319 -0.13008 74 28 8
-0.251066 -0.0354109 -0.167368 188 128 108
-0.250536 -0.0369026 -0.167452 82 27 10
-0.25968 -0.0539894 -0.124953 100 70 41
-0.258764 -0.0505279 -0.125315 137 91 66
-0.248495 -0.0402963 -0.166572 228 176 140
-0.248736 -0.0316635 -0.164585 178 122 103
-0.245037 -0.0326445 -0.165054 167 118 105
-0.254826 -0.00457502 -0.123028 74 26 14
-0.254826 -0.00457502 -0.123028 74 26 14
-0.24464 -0.0319906 -0.162089 66 24 12
-0.252932 0.0064446 -0.117848 165 138 130
-0.241342 -0.0479192 -0.152417 144 100 74
-0.23169 -0.0727914 -0.143371 179 119 95
-0.239682 -0.00195678 -0.125222 114 62 35
-0.2369 0.000883076 -0.125835 186 133 106
-0.235808 -0.00468182 -0.129806 175 119 99
-0.218663 -0.0467281 -0.131837 174 122 101
-0.218463 -0.0419048 -0.125682 72 46 29
-0.213713 -0.046589 -0.124538 80 54 32
-0.213349 0.00156956 -0.151227 92 73 60
-0.211579 0.0022031 -0.153539 88 66 60
-0.211474 0.00142642 -0.152843 154 134 121
-0.211529 0.00345982 -0.153448 90 66 60
-0.21111 0.0031891 -0.152094 96 72 66
-0.21111 0.0031891 -0.152094 96 72 66
-0.207747 9.3438e-06 -0.144202 158 134 118
-0.207192 0.0011522 -0.142723 114 30 24
-0.206195 -0.000121396 -0.153847 136 25 18
-0.205713 0.0139453 -0.15047 130 96 84
-0.196418 0.00464321 -0.16387 194 174 166
-0.195499 0.00883925 -0.164689 127 109 103
-0.195136 0.0215134 -0.155889 72 47 45
-0.191864 0.0066373 -0.132366 144 20 20
-0.193353 0.0222122 -0.150102 66 38 38
-0.19298 0.00366627 -0.16549 140 126 124
-0.193123 0.00497864 -0.166178 69 58 56
-0.19323 0.00601981 -0.167217 138 126 124
-0.190726 0.0188501 -0.152916 134 96 96
-0.189154 0.00557505 -0.1653 146 23 21
-0.187216 0.00601814 -0.160934 114 38 30
-0.186523 0.00662018 -0.160621 138 118 107
-0.183933 0.00704112 -0.162988 60 44 38
-0.181146 0.0051735 -0.163254 129 113 112
-0.181169 0.00946026 -0.161287 170 158 156
-0.172842 0.00535669 -0.145216 150 129 122
-0.173573 0.0112712 -0.151348 152 134 122
-0.171771 0.00675422 -0.145536 78 54 46
-0.156257 -0.00993554 -0.0907201 92 80 58
-0.150589 0.00292477 -0.108567 28 16 7
-0.15063 0.00278177 -0.108906 28 16 7
-0.151083 0.000190752 -0.11328 99 104 89
-0.149021 0.00323142 -0.107138 134 122 112
-0.142634 -0.0798357 -0.113687 164 156 109
-0.142634 -0.0798357 -0.113687 164 156 109
-0.142564 -0.0787583 -0.112995 124 72 40
-0.141213 -0.0865252 -0.112978 126 68 28
-0.141882 -0.0799742 -0.114411 130 74 47
-0.141257 -0.0764574 -0.112502 164 156 117
-0.144884 -0.0443584 -0.121678 154 122 104
-0.143276 -0.0680565 -0.124212 162 158 116
-0.143525 -0.0696583 -0.126105 87 66 36
-0.146416 -0.00406174 -0.114816 154 126 118
-0.143374 -0.076062 -0.129961 86 74 54
-0.142341 -0.0736142 -0.125254 76 74 52
-0.1434 -0.0717678 -0.129223 82 73 50
-0.137576 -0.0539177 -0.103709 163 158 114
-0.136748 -0.0553259 -0.106237 168 156 110
-0.140518 -0.0342701 -0.113148 144 116 103
-0.135715 -0.0543041 -0.102383 86 38 14
-0.141526 -0.0438995 -0.12085 152 124 112
-0.140644 -0.015981 -0.109393 132 112 92
-0.143641 -0.000312104 -0.115354 152 128 124
-0.136197 -0.0574281 -0.106604 121 65 33
-0.140152 -0.0471121 -0.120776 161 127 109
-0.140152 -0.0471121 -0.120776 161 127 109
-0.139325 -0.0368563 -0.114533 44 11 0
-0.139857 -0.0489035 -0.121243 98 46 20
-0.132225 -0.0329905 -0.0917358 46 32 10
-0.139207 -0.0518378 -0.123566 96 43 22
-0.137208 -0.0427224 -0.116849 140 106 88
-0.134964 -0.057078 -0.114412 108 46 24
-0.13278 -0.0599789 -0.113123 170 150 110
-0.132507 -0.0540832 -0.111017 86 50 24
-0.131102 -0.0470019 -0.105272 72 41 16
-0.124377 -0.0288465 -0.0771714 114 104 75
-0.132001 -0.0520837 -0.110059 162 154 113
-0.130413 -0.0480102 -0.104528 150 134 98
-0.130809 -0.0610449 -0.112738 161 157 112
-0.120086 -0.0328473 -0.0698884 158 149 127
-0.1206 -0.0950158 -0.0995197 102 85 48
-0.135603 -0.000907252 -0.12052 150 114 102
-0.135117 -0.002695 -0.121973 113 72 54
-0.127446 -0.0315745 -0.107215 69 52 36
-0.13547 -0.0613908 -0.143014 92 54 29
-0.117894 -0.0508401 -0.0857551 152 146 97
-0.133635 -0.00441812 -0.123654 107 60 40
-0.115953 -0.0552916 -0.0847393 54 43 8
-0.135095 -0.0644745 -0.145734 160 134 124
-0.13212 0.0104085 -0.116867 146 119 114
-0.132579 -0.00491505 -0.123107 147 104 86
-0.130523 0.00578925 -0.120373 134 85 70
-0.134128 -0.0681985 -0.151053 91 46 22
-0.133767 -0.0675697 -0.150987 138 93 71
-0.132144 -0.0605977 -0.146371 130 92 82
-0.129602 -0.0298279 -0.131909 183 118 92
-0.12829 -0.00183459 -0.124114 114 70 51
-0.122316 -0.0459401 -0.122082 160 132 120
-0.126643 -0.00484088 -0.124576 73 30 13
-0.129781 -0.0598013 -0.149242 134 108 100
-0.12519 -0.000377666 -0.125507 166 144 135
-0.124232 -0.00653747 -0.124879 94 50 28
-0.127854 -0.0558853 -0.147431 156 130 122
-0.128 -0.0542221 -0.147565 84 46 26
-0.101493 0.00418789 -0.0632492 155 114 96
-0.121321 -0.0268957 -0.127546 144 102 88
-0.120253 -0.044913 -0.129549 110 12 8
-0.120775 0.000582403 -0.121566 125 86 68
-0.120631 -0.0433515 -0.134504 176 88 68
-0.118293 -0.0347318 -0.127248 12 8 10
-0.120208 0.00129923 -0.12381 133 92 76
-0.117377 -0.027691 -0.123678 132 92 80
-0.117314 -0.0870135 -0.138503 119 76 48
-0.112808 -0.0928242 -0.129477 166 150 109
-0.114354 -0.0903309 -0.133258 157 130 98
-0.115505 -0.0878901 -0.136436 157 108 86
-0.115015 -0.0495256 -0.125316 94 82 66
-0.116724 -0.0473749 -0.129606 110 24 20
-0.117861 -0.0451332 -0.132801 114 12 8
-0.117664 -0.0274136 -0.128251 23 8 4
-0.117281 0.00679557 -0.119702 130 60 56
-0.11337 -0.0910588 -0.134685 102 62 28
-0.122394 -0.055453 -0.15038 160 138 128
-0.118494 -0.0472527 -0.139345 92 39 28
-0.115429 -0.0461228 -0.131578 154 91 72
-0.114401 -0.0318674 -0.12772 120 90 84
-0.114401 -0.0318674 -0.12772 120 90 84
-0.113803 -0.0346765 -0.12852 48 14 5
-0.113716 -0.0359538 -0.128983 140 91 73
-0.113773 -0.0336035 -0.128745 46 20 16
-0.120553 -0.0567711 -0.151574 108 82 70
-0.112598 -0.0287357 -0.127764 48 20 14
-0.111412 0.0020493 -0.11835 126 94 78
-0.110611 -0.0310094 -0.1263 156 98 77
-0.111686 0.00769694 -0.120668 180 152 122
-0.118112 -0.0579697 -0.150635 112 90 83
-0.110544 -0.0853741 -0.13995 130 82 60
-0.107199 -0.0322881 -0.121769 137 65 36
-0.105164 -0.0964706 -0.131538 219 174 150
-0.108447 0.000938877 -0.118334 187 154 142
-0.107916 0.00018488 -0.118444 144 98 84
-0.115673 -0.0577835 -0.150488 154 134 128
-0.115926 -0.0570527 -0.150933 105 85 80
-0.105597 -0.0270403 -0.121313 74 48 22
-0.105487 0.00110227 -0.115775 178 152 144
-0.115639 -0.0558083 -0.152293 102 84 77
-0.115402 -0.0571842 -0.152122 175 156 151
-0.103825 0.00362446 -0.113262 40 18 10
-0.103825 0.00362446 -0.113262 40 18 10
-0.103825 0.00362446 -0.113262 40 18 10
-0.0997258 0.00135069 -0.107192 138 92 70
-0.104341 -0.0360134 -0.125455 130 78 50
-0.298292 -0.017558 -0.22154 163 145 128
-0.2902 -0.0262317 -0.211482 148 22 26
-0.285573 -0.0282273 -0.218203 172 128 120
-0.297594 0.00924713 -0.195286 148 28 20
-0.296955 -0.00630473 -0.183246 118 113 118
-0.284708 -0.0031699 -0.198471 24 20 36
-0.291107 0.0166421 -0.184874 66 0 1
-0.291107 0.0166421 -0.184874 66 0 1
-0.282197 -0.0086986 -0.198931 112 104 113
-0.280937 -0.00457406 -0.194378 32 14 20
-0.280217 -0.00489072 -0.193362 47 23 31
-0.279508 -0.0622246 -0.171123 114 78 58
-0.280226 -0.06682 -0.16809 41 18 9
-0.278136 -0.0390166 -0.157957 32 10 8
-0.267597 -0.0548286 -0.154438 97 51 26
-0.263586 -0.0553701 -0.149866 92 56 26
-0.265691 0.00176612 -0.144874 65 24 16
-0.257577 -0.0301086 -0.163186 162 104 86
-0.247706 -0.0345114 -0.164361 189 130 112
-0.252773 -0.00121043 -0.131686 126 96 90
-0.150713 0.00401593 -0.109104 150 125 116
-0.14395 -0.0757029 -0.131869 99 80 56
-0.14165 -0.043129 -0.121697 112 82 66
-0.143573 0.0114517 -0.112166 90 48 28
0.649248 -0.382826 2.51321 86 46 22
-0.135785 -0.0715947 -0.146937 101 56 26
-0.13504 -0.0609324 -0.144141 160 118 96
-0.134026 -0.0673877 -0.149708 102 66 46
-0.125485 0.0121345 -0.119713 173 147 139
-0.114642 -0.0246981 -0.125056 178 116 96
-0.111721 -0.0893942 -0.136506 206 154 128
-0.103252 -0.0532186 -0.110467 22 13 10
-0.10215 -0.0528846 -0.109286 117 88 77
-0.110182 -0.0885421 -0.137482 204 156 134
-0.104644 -0.0153211 -0.117014 77 44 21
-0.287197 -0.00688964 -0.195194 120 110 116
-0.280852 -0.00465024 -0.194501 43 16 21
-0.188656 0.00933892 -0.1291 114 16 18
-0.113996 -0.0808848 -0.0970515 166 122 102
-0.277054 -0.0323506 -0.171482 162 140 118
-0.234935 -0.0361654 -0.157684 178 126 110
-0.184645 0.00728991 -0.128902 102 92 80
-0.127773 0.00724999 -0.12146 97 38 18
-0.296057 0.0135449 -0.192223 172 110 34
-0.27682 -0.0276332 -0.20955 108 24 24
-0.280194 -0.00491353 -0.193365 48 20 27
-0.273892 -0.0742095 -0.167524 108 74 48
-0.272331 -0.0661179 -0.16799 46 14 6
-0.198836 0.019256 -0.145642 89 48 46
-0.108743 -0.0919831 -0.137217 101 50 22
-0.1087 -0.0919096 -0.137686 101 50 22
-0.296103 0.0103209 -0.19238 143 10 11
-0.291171 0.00299179 -0.198991 118 22 14
-0.289933 -0.000112828 -0.200906 87 54 61
-0.288486 -0.0454451 -0.155399 36 10 5
-0.265415 0.00446983 -0.145461 151 123 116
-0.221809 -0.0833139 -0.141069 66 54 20
-0.287397 -0.0284242 -0.216002 170 128 120
-0.301836 0.00702042 -0.193213 156 128 112
-0.295594 0.0111636 -0.192131 142 12 18
-0.283979 -0.0123958 -0.204299 20 18 33
-0.283111 -0.0134792 -0.204509 27 16 26
-0.281346 -0.0128591 -0.202245 22 19 36
-0.281712 -0.0108091 -0.200466 127 124 134
-0.28147 -0.0102705 -0.199685 25 18 29
-0.288565 0.010986 -0.184324 149 85 31
-0.288146 -0.0573417 -0.159191 144 128 102
-0.286541 -0.0532396 -0.160099 174 120 94
-0.287064 -0.0380027 -0.154759 84 46 27
-0.28961 -0.00232861 -0.151645 102 64 32
-0.266307 -0.0665573 -0.164066 182 125 106
-0.265149 -0.0697731 -0.161833 47 8 0
-0.265149 -0.0697731 -0.161833 47 8 0
-0.261166 -0.0381939 -0.164592 87 42 20
-0.197829 0.019397 -0.151653 134 108 106
-0.197407 0.0192825 -0.152342 134 108 106
-0.141713 -0.0671208 -0.136759 135 112 100
-0.135598 -0.0392757 -0.11407 28 32 20
-0.135598 -0.0392757 -0.11407 28 32 20
-0.14014 0.00586528 -0.117364 114 86 80
-0.135954 -0.0613703 -0.140263 144 114 100
-0.133664 -0.00525633 -0.123805 148 103 86
-0.1208 0.000613139 -0.121844 145 108 92
-0.121494 -0.00200222 -0.125557 154 109 88
-0.11455 -0.0888161 -0.137697 138 88 56
-0.111478 -0.0894902 -0.138507 114 62 33
-0.109018 -0.0914568 -0.13948 100 52 26
-0.107159 -0.0898125 -0.136085 114 79 54
-0.115888 -0.0564912 -0.152441 156 137 130
-0.108782 -0.0308135 -0.128196 182 155 136
-0.108322 -0.0333433 -0.128763 144 84 61
-0.10633 0.00546642 -0.116778 178 148 134
-0.113944 -0.0654907 -0.156928 236 220 214
-0.113417 -0.0649408 -0.156624 196 182 179
-0.0974161 -0.0151778 -0.104075 110 71 43
-0.0741102 -0.0900516 -0.0726141 46 38 26
-0.201305 0.0203124 -0.152214 68 30 25
-0.140835 -0.0448976 -0.121358 141 111 95
-0.139825 -0.068672 -0.142691 150 126 111
-0.106756 -0.0595376 -0.0599786 160 150 112
-0.283607 -0.0121712 -0.205427 22 18 32
-0.282671 -0.00846418 -0.20096 26 18 32
-0.276164 -0.0295396 -0.201601 158 143 126
-0.279915 -0.00510261 -0.195485 51 24 29
-0.281151 -0.0441415 -0.159788 106 60 48
-0.273527 -0.0535754 -0.158922 111 52 26
-0.255503 -0.0537692 -0.119872 62 25 4
-0.250513 -0.00236781 -0.131942 76 30 14
-0.129295 -0.0022129 -0.121353 132 83 62
-0.287366 -0.0279531 -0.214404 186 138 136
-0.282006 -0.00912399 -0.208423 16 12 25
-0.259684 -0.03079 -0.169426 110 62 35
-0.256303 -0.0072176 -0.145109 92 46 23
-0.233508 -0.0409027 -0.149904 74 26 8
-0.219803 -0.0596184 -0.13405 44 14 10
-0.282927 -0.00968596 -0.199163 22 18 37
-0.276367 -0.0679605 -0.169952 164 117 90
-0.267863 -0.0725987 -0.16219 138 92 68
-0.265305 -0.0420886 -0.158301 139 94 70
-0.211535 -0.0549656 -0.130019 56 30 7
-0.210683 -0.0129796 -0.0952085 91 68 30
-0.130289 0.00969565 -0.117424 124 62 64
-0.113919 -0.0769997 -0.117273 190 152 129
-0.114463 -0.00976536 -0.101787 196 174 164
-0.109837 0.0126716 -0.110509 134 102 84
-0.115118 -0.0559883 -0.162575 200 182 177
-0.105057 -0.0133809 -0.111977 30 22 16
-0.298475 0.0141282 -0.189979 177 112 43
-0.224088 -0.0716766 -0.139876 153 93 71
-0.122544 -0.0143254 -0.120005 134 106 92
-0.121058 -0.0140791 -0.116419 128 103 90
-0.287466 -0.036389 -0.217003 162 143 126
-0.287855 -0.0333004 -0.215179 149 18 18
-0.287855 -0.0333004 -0.215179 149 18 18
-0.286729 -0.0188224 -0.202617 114 12 14
-0.286729 -0.0188224 -0.202617 114 12 14
-0.198372 0.0188331 -0.155636 128 105 100
-0.173282 0.00471575 -0.142288 84 67 53
-0.146987 -0.0326063 -0.109313 198 170 146
-0.143173 -0.0844532 -0.12925 152 106 76
-0.139851 -0.0924918 -0.12079 95 70 28
-0.132383 -0.0545633 -0.109611 88 43 14
-0.0870287 -0.0174926 0.182778 156 134 118
-0.130269 0.0109198 -0.118521 175 146 139
-0.0973438 -0.0757566 -0.13674 44 28 10
-0.280217 -0.010304 -0.206563 109 105 116
-0.278101 -0.0212119 -0.202586 108 12 12
-0.306436 -0.0481837 -0.129715 166 142 117
-0.260212 -0.0411363 -0.1613 125 84 58
-0.212818 -0.0643834 -0.140725 156 146 108
-0.202603 -0.00477767 -0.184535 160 138 122
-0.198758 -0.00700132 -0.190407 146 31 24
-0.182154 -0.00684613 -0.244497 99 18 11
-0.178638 -0.00475489 -0.241569 101 83 74
-0.172687 -0.00413089 -0.219044 140 125 116
-0.171229 -0.00564808 -0.2249 82 55 44
-0.145783 -0.0735934 -0.165594 152 129 104
-0.149241 -0.0252708 -0.217418 52 63 32
-0.143997 -0.0383832 -0.213239 161 158 106
-0.136816 -0.0673251 -0.191495 162 142 112
-0.111608 -0.0362448 -0.0645513 136 106 92
0.00268658 -0.0878236 0.476081 147 120 108
-0.105104 -0.0492647 -0.0631948 144 54 29
-0.124171 -0.0768695 -0.170592 114 18 9
-0.0905311 -0.0705106 -0.0280067 122 76 50
-0.109188 -0.032877 -0.0998466 15 9 12
-0.0736851 -0.0833508 0.0166022 108 86 76
-0.130645 -0.0186845 -0.197506 74 49 28
-0.11071 -0.0440208 -0.126766 174 124 100
-0.0960508 -0.0675848 -0.0852834 95 80 76
-0.0960508 -0.0675848 -0.0852834 95 80 76
-0.0773769 -0.0805645 -0.0215765 133 114 110
-0.0991802 -0.0571491 -0.10213 158 118 102
-0.118948 -0.0341945 -0.183466 166 138 114
-0.0808809 -0.0820781 -0.0671057 255 248 245
-0.11383 -0.0343204 -0.167538 182 158 142
-0.307862 0.00593169 -0.187809 172 134 104
-0.312978 0.0140589 -0.180982 157 122 107
-0.293356 0.00568961 -0.197921 169 113 44
-0.297138 0.0085901 -0.193353 162 107 36
-0.295981 0.0105149 -0.194308 148 16 18
-0.293895 0.0155232 -0.194822 136 16 14
-0.277948 -0.0350705 -0.208281 116 14 11
-0.300989 0.0105521 -0.183559 110 9 9
-0.300989 0.0105521 -0.183559 110 9 9
-0.293979 -0.0133309 -0.188886 32 20 30
-0.29564 0.00820979 -0.187702 104 8 10
-0.289977 0.0105676 -0.191724 96 20 14
-0.276651 -0.0285189 -0.201429 162 148 130
-0.295158 0.00712599 -0.183481 99 12 6
-0.304073 0.0262057 -0.17236 119 20 20
-0.280957 -0.0020749 -0.194281 55 2 2
-0.270663 -0.0247266 -0.184351 132 14 16
-0.317747 -0.00638921 -0.116453 100 64 32
-0.279119 -0.0368176 -0.152914 140 96 78
-0.276216 -0.034687 -0.155366 133 90 70
-0.256223 -0.0333507 -0.161741 174 112 90
-0.264809 -0.0684318 -0.144309 149 143 91
-0.266289 -0.00228406 -0.141147 196 142 108
-0.243153 -0.0319793 -0.164536 56 14 4
-0.263851 -0.0308471 -0.114031 61 26 15
-0.233033 -0.038209 -0.157186 146 99 78
-0.237655 -0.00485628 -0.130616 134 80 56
-0.225675 -0.0754871 -0.123106 76 41 24
-0.225675 -0.0754871 -0.123106 76 41 24
-0.207514 0.00183174 -0.165017 84 56 48
-0.209011 0.00273885 -0.159918 81 62 52
-0.204686 0.00213224 -0.164573 92 66 56
-0.196447 -0.00285875 -0.181312 150 126 118
-0.196581 -0.00146025 -0.180977 94 70 62
-0.216193 -0.0433118 -0.127092 99 60 32
-0.214638 -0.0659168 -0.12725 150 143 96
-0.198311 0.0122883 -0.170584 149 28 28
-0.192033 0.0041816 -0.17558 102 87 80
-0.181887 0.00452595 -0.172998 144 125 118
-0.185436 0.002111 -0.159345 94 82 66
-0.178526 0.00424772 -0.176986 82 64 57
-0.182565 0.00790941 -0.155303 98 77 72
-0.179225 -0.00963426 -0.155347 138 31 22
-0.175361 0.00436138 -0.161017 77 26 18
-0.174717 0.0127482 -0.162902 149 128 121
-0.173447 0.00464694 -0.156676 88 74 64
-0.176146 0.00524088 -0.138686 79 64 54
-0.170512 0.0032348 -0.154642 83 66 56
-0.17215 0.00343423 -0.146886 148 129 115
-0.169305 0.00239427 -0.153355 105 87 72
-0.172857 -0.0575001 -0.00798843 87 88 48
-0.158219 -0.0495676 -0.0699087 84 86 46
-0.142856 -0.0763421 -0.14092 150 122 92
-0.142459 -0.0824707 -0.133176 102 66 30
-0.145549 -0.0448476 -0.120166 164 137 110
-0.141807 -0.067837 -0.141611 149 133 106
-0.140895 -0.0809159 -0.136637 150 132 110
-0.143741 -0.0451004 -0.124233 170 138 118
-0.139356 -0.0665355 -0.14438 91 85 72
-0.144572 -0.0243484 -0.0996478 128 97 78
-0.139007 -0.0658084 -0.141015 86 68 59
-0.141856 -0.0367122 -0.115904 46 10 2
-0.139447 -0.0458499 -0.119361 164 127 109
-0.138799 -0.0463015 -0.118816 110 59 32
-0.136182 -0.0855837 -0.122964 118 96 80
-0.138345 -0.0416673 -0.114232 160 122 104
-0.134267 -0.0629314 -0.157418 154 126 114
-0.137509 -0.040753 -0.116045 110 64 39
-0.138579 -0.0356115 -0.0890075 33 12 2
-0.138869 -0.0322852 -0.0711395 89 70 37
-0.137075 -0.0146628 -0.112819 82 68 50
-0.131295 -0.0671464 -0.160599 128 80 58
-0.136817 -0.0229793 -0.0912487 68 38 17
-0.135782 -0.0184275 -0.110603 125 101 86
-0.130234 -0.067471 -0.161276 102 7 4
-0.131265 -0.0581418 -0.152636 155 128 115
-0.133943 -0.00480946 -0.120634 188 140 120
-0.13355 -0.00832713 -0.120716 94 52 26
-0.132067 -0.0428029 -0.0913937 60 38 16
-0.133238 0.00427166 -0.125796 195 164 158
-0.131919 -0.021025 -0.116533 180 111 82
-0.131733 -0.0460955 -0.0862733 90 51 16
-0.13116 -0.0489344 -0.0856177 94 68 24
-0.130876 -0.0404452 -0.0892642 94 77 42
-0.128912 -0.018351 -0.113358 42 19 8
-0.129672 0.0120587 -0.120779 174 150 145
-0.129171 0.00727168 -0.122042 138 24 21
-0.125976 -0.0476609 -0.113894 76 76 49
-0.125473 -0.00280644 -0.120747 112 64 38
-0.122891 -0.0462321 -0.128892 156 127 112
-0.12502 0.0110256 -0.120707 118 70 66
-0.122109 -0.0380164 -0.131019 23 16 14
-0.124146 -9.91037e-05 -0.124999 178 152 146
-0.121488 -0.0353943 -0.130308 18 10 10
-0.121097 -0.036129 -0.131937 118 108 108
-0.121127 -0.00364961 -0.123507 96 50 26
-0.120642 -0.00213297 -0.126016 190 147 127
-0.119371 -0.0233014 -0.124248 116 90 76
-0.118251 -0.0154913 -0.111825 77 36 13
-0.116723 -0.0590427 -0.160855 95 70 60
-0.116733 -0.057253 -0.161028 62 40 29
-0.116733 -0.057253 -0.161028 62 40 29
-0.116353 -0.0590756 -0.157587 198 173 162
-0.113852 -0.0928186 -0.136809 153 145 103
-0.113436 -0.0904804 -0.138755 106 59 26
-0.11749 0.0058906 -0.122434 183 150 145
-0.114232 -0.0577745 -0.161482 168 149 142
-0.113962 -0.0418056 -0.130742 90 33 14
-0.11394 -0.0543889 -0.15244 156 136 128
-0.113549 -0.05665 -0.161279 152 135 130
-0.113549 -0.05665 -0.161279 152 135 130
-0.111258 -0.0576415 -0.156609 75 59 54
-0.113086 0.0118627 -0.11938 128 99 86
-0.107426 -0.0568488 -0.0861517 162 145 114
-0.106648 -0.092905 -0.134498 98 64 26
-0.106801 -0.0873336 -0.136915 18 8 3
-0.107518 -0.0311273 -0.120299 177 146 127
-0.1071 -0.0346056 -0.125365 144 76 40
-0.106269 -0.0167108 -0.11175 184 155 136
-0.10505 -0.040789 -0.121041 154 96 73
-0.101005 -0.0548116 -0.098321 19 7 2
-0.100818 -0.0556995 -0.108868 154 113 96
-0.103707 -0.055703 -0.153439 128 23 19
-0.0964998 -0.0554519 -0.0983567 150 143 94
-0.0946707 -0.0540236 -0.142973 191 166 153
-0.0816421 -0.0803586 -0.113789 158 138 113
-0.0324944 -0.049569 0.191768 104 104 60
-0.204975 -0.0112664 -0.0986167 150 136 115
-0.0972849 -0.0466393 -0.0710847 148 136 103
-0.0904453 -0.0744947 -0.137986 144 118 100
-0.288488 -0.0418785 -0.211216 22 28 68
-0.293941 0.0127849 -0.196866 146 27 18
-0.287038 -0.00782762 -0.202231 118 108 115
-0.258314 -0.0715552 -0.18438 58 42 14
-0.22508 -0.0814329 -0.139821 92 64 46
-0.132224 -0.0528494 -0.112907 76 36 14
-0.12283 -0.0682277 -0.15358 218 180 160
-0.124493 -0.012949 -0.114984 160 127 107
-0.110792 0.0125858 -0.110239 134 106 89
-0.274412 -0.0381413 -0.209817 164 148 126
-0.286461 0.0211614 -0.185481 124 12 13
-0.269539 -0.0711421 -0.154986 40 10 1
-0.269539 -0.0711421 -0.154986 40 10 1
-0.259815 -0.0409835 -0.159356 88 48 22
-0.268078 -0.0545737 -0.109818 94 58 24
-0.234749 -0.0390927 -0.152424 72 26 8
-0.233822 0.000707586 -0.117775 126 76 52
-0.228033 -0.0049472 -0.113204 153 112 93
-0.211365 -0.0495928 -0.128561 94 66 30
-0.208829 -0.0498089 -0.130435 158 146 116
-0.186169 0.00331541 -0.18138 76 62 62
-0.185584 0.00463314 -0.181024 132 114 109
-0.169389 0.00191571 -0.154025 92 72 58
-0.152102 0.00133307 -0.096436 97 33 30
-0.143931 -0.0414602 -0.118599 56 27 7
-0.139946 -0.0934243 -0.120589 95 72 32
-0.131109 -0.0363892 -0.0768234 158 148 124
-0.122149 -0.0419121 -0.140007 140 70 46
-0.122442 -0.0159679 -0.113333 171 148 136
-0.116202 -0.0621454 -0.172807 122 90 77
-0.119262 -0.0158892 -0.10609 140 111 100
-0.119262 -0.0158892 -0.10609 140 111 100
-0.111023 -0.0692042 -0.160821 10 13 11
-0.110983 -0.0563739 -0.167461 86 70 66
-0.111695 0.0164424 -0.0888938 129 100 85
-0.110236 0.00850402 -0.114379 193 166 145
-0.109669 0.0108612 -0.0960941 193 166 145
-0.108533 0.00695838 -0.0992705 194 164 150
-0.104446 -0.0351278 -0.12752 140 100 75
-0.104446 -0.0351278 -0.12752 140 100 75
-0.0969258 -0.0326387 -0.102587 136 88 63
-0.0989917 -0.0569 -0.159619 154 134 126
-0.0976806 -0.0548214 -0.156039 155 138 118
-0.088694 -0.0577515 -0.135309 46 22 15
-0.0818957 -0.0798561 -0.114669 159 137 110
-0.0786626 -0.0830566 -0.105843 155 148 95
-0.283315 -0.00341983 -0.200048 24 14 29
-0.288014 -0.0571273 -0.160813 160 146 123
-0.288014 -0.0571273 -0.160813 160 146 123
-0.28461 -0.0116686 -0.206346 111 104 107
-0.289111 0.0102081 -0.200132 138 12 12
-0.28055 -0.0253658 -0.190064 134 93 34
-0.282573 0.00132116 -0.185427 158 136 119
-0.263647 -0.0412275 -0.159862 92 50 24
-0.234358 -0.0640149 -0.131664 80 30 10
-0.208479 -0.0444698 -0.129772 153 142 119
-0.11129 -0.0889249 -0.140301 120 68 36
-0.104507 -0.0540961 -0.114872 54 17 4
-0.0998039 -0.0534713 -0.11497 34 16 4
