ply
format ascii 1.0
element vertex 1328
property float x
property float y
property float z
property uchar red
property uchar green
property uchar blue
end_header
-1.17655 1.94317 9.54695 42 78 88
-1.05714 -1.20747 9.41996 136 166 174
-1.20218 1.59323 9.61559 98 134 140
-1.22992 3.47211 9.6168 157 160 154
-1.2557 4.17925 9.6447 130 150 154
-1.03723 -1.23996 9.41391 40 96 117
-1.09802 0.815435 9.47685 106 134 146
-1.22357 4.125 9.6198 39 84 106
-1.10264 0.773479 9.49315 44 78 90
-1.15172 2.37134 9.53893 150 157 151
-1.2269 4.42404 9.63104 120 144 152
-1.23998 4.90204 9.64174 144 155 160
-1.08617 1.11768 9.4706 148 151 143
-1.09703 1.20653 9.49069 150 162 158
-1.20487 4.05445 9.61776 107 138 148
-1.11869 2.02611 9.51871 120 148 154
-1.23015 4.96219 9.66663 61 87 98
-1.04692 0.827556 9.45492 102 137 146
-1.08241 -1.6549 9.61647 72 94 96
-1.03949 0.805938 9.46099 98 134 143
-1.20286 -1.59335 9.86293 43 96 110
-1.05287 1.9009 9.47388 30 82 104
-1.09425 3.0237 9.55851 72 99 102
-1.09425 3.0237 9.55851 72 99 102
-1.00017 1.25836 9.45201 132 146 150
-0.941578 1.30199 9.45421 97 118 128
-0.914829 1.21411 9.43393 117 140 158
-0.931965 1.56279 9.47345 126 156 167
-0.96125 2.77034 9.51049 30 86 112
-1.02669 4.81409 9.60411 83 101 114
-0.92635 2.86408 9.48436 160 164 160
-0.932556 2.79364 9.4969 31 90 114
-0.930968 2.83942 9.50698 72 98 103
-0.856209 1.06525 9.4208 102 140 164
-0.878528 1.90792 9.44502 25 76 100
-0.919682 2.8874 9.49719 158 178 182
-0.855114 1.23933 9.42432 30 64 83
-0.898798 2.81374 9.48488 132 160 172
-0.841254 1.11585 9.42469 106 142 162
-0.825538 1.03802 9.40742 33 65 85
-0.879886 2.10088 9.48667 49 82 96
-0.908469 2.9158 9.52295 138 172 184
-0.827983 1.30892 9.42641 80 121 142
-0.716127 -0.807523 9.29159 42 84 117
-0.787144 1.0615 9.41292 76 120 148
-0.930546 4.80749 9.60225 128 152 163
-0.917479 4.79199 9.57939 128 152 163
-0.847897 3.27592 9.50391 166 179 198
-0.899569 5.05004 9.57885 32 86 108
-0.799197 2.3678 9.46497 26 88 118
-0.826862 2.95953 9.50224 54 104 128
-0.836826 3.66171 9.51384 34 88 112
-0.735554 1.08147 9.39107 15 64 90
-0.796059 2.94044 9.48616 154 191 214
-0.762526 2.34922 9.47189 49 96 119
-0.78761 3.23577 9.50019 30 88 114
-0.632466 -1.01911 9.31769 155 212 242
-0.748998 2.40762 9.45663 172 202 222
-0.774523 2.89096 9.49585 38 90 116
-0.610315 -1.03535 9.27836 46 100 148
-0.610315 -1.03535 9.27836 46 100 148
-0.843058 4.77946 9.58307 71 97 111
-0.787955 3.08742 9.52225 37 94 126
-0.581301 -1.05295 9.26546 27 82 132
-0.667536 2.23151 9.45043 47 84 106
-0.609333 1.14506 9.38195 6 65 98
-0.633976 2.65154 9.44878 147 176 192
-0.575894 1.10435 9.37491 14 68 98
-0.62255 2.29518 9.45155 104 152 173
-0.581507 2.45411 9.451 21 82 108
-0.579985 2.28849 9.45969 146 171 185
-0.638717 4.52903 9.57848 129 138 134
-0.506679 1.23283 9.3975 64 110 137
-0.44546 1.24112 9.38671 26 61 82
-0.444366 1.23975 9.38373 26 61 82
-0.472375 2.48301 9.45858 44 78 90
-0.584948 5.04786 9.63085 64 86 88
-0.38281 -1.66367 9.41076 196 172 155
-0.353564 -1.70669 9.35315 188 173 157
-0.45238 2.43203 9.46107 161 168 166
-0.446119 2.41786 9.45181 153 152 146
-0.36637 1.30776 9.36532 104 124 136
-0.428758 2.41337 9.45491 152 162 156
-0.435263 2.46988 9.46837 128 158 166
-0.418132 2.56741 9.47058 36 80 94
-0.276399 -1.58219 9.37296 188 178 168
-0.36461 2.4205 9.47302 150 164 170
-0.209804 -1.41827 9.29536 24 96 110
-0.337215 2.48029 9.47692 45 84 93
-0.375653 3.45353 9.54501 152 151 145
-0.318679 2.48702 9.4886 102 140 150
-0.137101 -1.94093 9.43814 17 60 78
-0.132238 -1.96366 9.50366 7 34 51
-0.223494 4.33552 9.6589 31 79 91
-0.222367 4.33257 9.65603 31 79 91
-0.0231918 -1.5885 9.40441 38 86 94
-0.0751019 1.94951 9.52703 20 8 4
0.0700288 -1.29156 9.30817 62 150 153
-0.00463381 1.23692 9.47324 123 73 38
-0.038528 1.99273 9.54393 120 83 55
0.090135 -1.54134 9.42124 196 182 162
-0.0203441 2.7201 9.60005 94 106 105
0.0545786 2.17541 9.58007 118 94 76
0.0306597 2.75615 9.6296 19 17 12
0.0742513 1.8774 9.56546 108 94 88
0.181126 -1.51831 9.41997 168 100 50
0.220095 -1.32032 9.4621 111 192 187
0.225646 -1.42388 9.63946 241 254 232
0.231959 -1.33315 9.54225 96 190 189
0.151713 -1.3228 9.68448 147 241 242
0.117225 2.60318 9.66266 70 110 112
0.167645 1.55068 9.57104 124 100 90
0.127444 2.68966 9.67553 68 110 114
0.131461 2.68972 9.66832 68 110 114
0.286254 -1.26056 9.379 222 255 255
0.322568 -1.24169 9.40831 50 110 106
0.344324 -1.22425 9.39309 109 139 142
0.274264 0.947506 9.56614 111 90 75
0.372276 -1.22807 9.42093 12 79 83
0.293533 -1.31334 9.66278 135 236 236
0.133885 4.82635 9.92558 36 78 82
0.166958 4.36946 9.92049 138 140 132
0.386959 -1.61224 9.57211 190 177 160
0.448109 -1.28874 9.44292 70 148 152
0.21946 4.00111 9.92846 27 22 16
0.146352 -1.72341 10.2613 174 98 40
0.26867 4.02848 9.9462 48 80 80
0.317853 3.50952 9.89469 33 74 78
0.329594 3.54672 9.93197 37 75 74
0.481196 -1.5897 9.6599 124 159 161
0.54492 -1.24977 9.49052 76 134 126
0.369549 3.85782 9.96011 29 75 81
0.33741 3.87934 10.0178 29 75 81
0.500917 -1.90544 9.79917 168 190 181
0.336196 4.93486 10.1968 137 138 122
0.350039 4.82968 10.2077 152 144 126
0.372854 4.80248 10.1559 152 144 126
0.440522 3.13181 10.0154 32 28 22
0.450118 2.86343 9.99068 136 153 142
0.38748 4.6433 10.148 126 132 122
0.395509 3.96039 10.1537 30 76 81
0.395509 3.96039 10.1537 30 76 81
0.598159 -1.58002 9.70539 42 89 86
0.356166 4.80827 10.233 134 85 48
0.485901 2.72369 9.9813 32 18 4
0.49125 2.6989 9.98982 154 125 98
0.644498 -0.294734 9.62103 73 107 112
0.414127 4.70842 10.2027 172 126 94
0.406721 4.78499 10.3095 165 150 130
0.684418 -0.169431 9.71407 100 124 123
0.480799 4.45987 10.3566 140 132 122
0.456834 5.14416 10.4358 46 78 80
0.500212 4.36051 10.3771 138 134 118
0.484131 4.70288 10.4345 136 128 110
0.543631 3.67426 10.2874 154 150 140
0.548467 3.72245 10.3231 48 45 36
0.475163 5.05967 10.525 155 130 108
0.651049 1.78441 10.0408 14 6 1
0.562428 3.71264 10.3503 154 152 139
0.801791 -1.2164 9.68235 26 93 100
0.666028 1.77761 10.0535 18 12 9
0.562832 3.77392 10.3463 55 78 76
0.821675 -1.26234 9.73777 108 152 152
0.588273 3.75126 10.4043 46 46 35
0.54385 4.76684 10.6036 161 138 116
0.827601 -1.31498 9.78776 78 108 100
0.55859 4.7799 10.6393 81 90 79
0.635834 3.65279 10.4081 144 144 134
0.635834 3.65279 10.4081 144 144 134
0.85439 -1.20047 9.7815 42 85 80
0.85134 -1.39455 9.8542 150 166 158
0.623582 3.77616 10.5257 56 77 80
0.637885 3.77311 10.5111 56 77 80
0.876615 -1.10791 9.77596 28 86 91
0.881807 -1.28802 9.81247 150 174 165
0.897824 -1.24185 9.8311 30 94 100
0.900527 -1.34218 9.86562 172 172 158
0.630075 4.4262 10.786 138 138 122
0.938037 -1.19944 9.87332 36 82 82
0.899409 -1.62087 10.0871 163 152 131
0.971286 -1.04545 9.97401 166 168 161
0.940061 -1.17705 9.91406 165 164 150
0.951857 -1.39765 9.97053 156 168 158
0.832315 -1.59289 10.338 169 155 135
0.586065 -2.15037 11.381 68 94 90
1.01912 -1.18105 9.97966 24 82 86
1.03455 -1.22086 9.99244 122 142 140
1.04642 -1.0842 10.0791 26 74 80
0.961783 -1.89062 10.4509 40 68 69
1.01807 -1.54286 10.2118 143 94 58
1.00717 -1.62617 10.2828 176 159 142
1.02205 -1.58638 10.2885 94 93 78
1.02865 -1.64538 10.3329 150 100 63
0.988263 -0.0790698 10.4131 22 58 66
1.04913 -0.462321 10.1781 14 12 10
1.04983 -0.256597 10.2418 106 82 66
1.0606 -0.397405 10.2079 94 88 85
1.048 -1.72927 10.5346 80 94 90
1.27584 -0.257107 9.45758 134 118 104
0.983731 -1.80796 11.0068 109 113 104
1.10437 -0.173121 10.4957 47 43 38
1.15026 -1.40429 10.3766 160 170 155
1.15192 -1.39723 10.4209 70 90 80
1.14755 -1.44506 10.4752 83 98 86
1.12709 -0.201046 10.5524 152 136 116
1.18224 -1.20114 10.3597 38 68 67
1.18173 -1.26665 10.3875 121 144 138
1.19087 -1.15073 10.3548 118 130 122
1.19744 -1.15077 10.347 118 130 122
1.2073 -1.17997 10.397 47 83 88
1.16587 -0.496547 10.5827 140 116 96
1.22442 -1.16452 10.4241 50 78 78
1.22163 -1.15107 10.4769 127 150 144
-2.09533 1.31349 10.7567 120 143 148
-1.31938 1.95812 9.62318 47 88 106
-1.19556 1.25497 9.52609 59 89 95
-1.2371 2.36406 9.58064 132 152 157
-1.2371 2.36406 9.58064 132 152 157
-1.34828 4.99943 9.70838 72 104 107
-1.17668 2.87556 9.57927 167 169 162
-1.16142 2.80144 9.56571 48 88 98
-1.1124 3.02091 9.55092 132 159 166
-0.980285 0.735571 9.44174 29 80 101
-1.03396 2.92737 9.52834 44 92 108
-0.941194 0.666642 9.42353 44 77 93
-0.930927 0.778187 9.42032 44 71 86
-0.939095 1.72119 9.45611 130 150 160
-0.903561 1.23281 9.43697 31 70 89
-1.02302 5.05401 9.61091 88 132 145
-0.848347 1.08596 9.39715 20 70 99
-0.833186 1.11125 9.40859 100 140 160
-0.82459 1.16191 9.40528 26 77 102
-0.824871 1.20685 9.41942 130 144 156
-0.834718 2.36058 9.46439 42 86 107
-0.746914 1.10128 9.39289 88 126 152
-0.660535 -0.847599 9.28996 116 160 197
-0.795883 3.21268 9.49476 128 172 192
-0.625242 -0.739713 9.28185 49 93 135
-0.734507 2.4422 9.45386 137 172 194
-0.570022 -0.830898 9.27048 130 171 218
-0.729134 4.53282 9.55609 141 96 66
-0.656926 4.24191 9.5558 130 139 149
-0.596712 -1.26666 9.70411 66 219 255
-0.468888 1.27233 9.39386 20 60 80
-0.434446 2.46913 9.46561 137 170 177
-0.396676 1.3157 9.44166 124 143 155
-0.320517 -1.68119 9.41008 172 102 47
-0.333898 1.27575 9.40015 32 63 80
-0.246326 -0.520916 9.27888 1 8 25
-0.341867 2.48269 9.48152 42 82 91
-0.327545 2.47371 9.48225 38 77 88
-0.300842 2.39981 9.48698 51 78 82
-0.300842 2.39981 9.48698 51 78 82
-0.20583 2.50258 9.51729 118 140 140
-0.0920437 -1.97273 9.53493 6 28 42
-0.0673237 1.26389 9.43802 1 6 13
0.0297789 -0.629859 9.30106 60 112 140
0.0971128 -1.01702 9.44885 55 101 119
-0.0192778 2.79726 9.61022 8 14 11
0.162043 -0.566767 9.36757 100 90 86
0.215633 0.501574 9.47343 68 69 70
-0.11421 -1.48342 10.6301 21 84 86
0.127426 4.6407 9.91405 128 134 127
0.202147 -1.42416 9.96734 77 172 172
0.332679 -1.97055 9.69846 76 80 78
0.0176392 -1.48363 10.6219 72 126 115
0.178743 4.89747 10.0148 38 78 82
0.474781 -1.6097 9.63452 172 182 178
0.41746 1.72619 9.77454 63 108 108
0.432716 1.99233 9.82206 58 104 108
0.406133 3.84913 10.0832 160 156 138
0.334029 4.9093 10.2481 38 78 82
0.424082 3.77225 10.0802 34 30 20
0.424082 3.77225 10.0802 34 30 20
0.511725 2.24478 9.94541 152 111 73
0.485958 2.96394 10.0204 130 98 73
0.603565 -1.8948 9.84885 156 178 170
0.407612 4.70264 10.3414 122 122 110
0.481436 3.86693 10.1913 52 80 80
0.455929 4.38881 10.2956 118 127 116
0.446923 4.70126 10.3418 150 137 116
0.673452 0.779624 9.86241 22 12 6
0.730406 -0.299183 9.7356 144 116 96
0.662226 1.22085 9.92953 18 10 4
0.506895 4.48693 10.4054 129 136 126
0.500211 4.49058 10.4192 129 136 126
0.77539 -1.06272 9.68677 44 74 76
0.545974 3.72368 10.3302 50 45 36
0.666784 1.39095 10.017 144 127 107
0.651745 1.88445 10.0666 16 13 10
0.79296 -1.04545 9.69412 25 69 70
0.791773 -0.588147 9.76699 152 128 112
0.822718 -1.28527 9.79416 38 92 88
0.852827 -1.20036 9.73688 170 179 162
0.798056 -1.08424 9.91483 120 151 152
0.874966 -1.40412 9.86499 60 96 91
0.92416 -1.39957 9.93278 36 84 88
0.914124 -1.18525 9.87195 62 86 76
0.957501 -1.22664 9.88264 148 166 156
0.957501 -1.22664 9.88264 148 166 156
0.94845 -1.17674 9.85259 160 171 163
0.957713 -1.18096 9.8838 160 171 163
0.961392 -1.306 9.92547 157 172 163
0.997777 -1.1371 9.80212 146 160 152
0.972874 -1.13706 9.90722 30 74 76
1.00785 -1.1576 9.93721 44 84 82
1.00755 -1.28691 10.0089 38 81 78
1.26693 -0.967432 8.98694 40 72 70
1.03102 -1.26966 10.037 86 122 120
1.00181 -1.53695 10.2008 188 150 117
1.01052 -0.337532 10.1433 124 117 111
1.05531 -1.17629 10.0204 134 152 146
0.965815 -1.90792 10.5152 118 135 132
1.06428 -1.03174 10.0791 25 62 64
1.05401 -1.61444 10.3863 182 163 141
1.1365 -1.42815 10.3589 62 93 95
1.06881 0.293225 10.6716 56 50 42
1.17453 -1.25564 10.3473 45 78 76
1.10277 -1.03214 10.826 112 130 126
1.22151 -1.19285 10.5272 138 152 144
-1.17162 3.84201 9.59204 159 163 160
-1.11697 0.770314 9.75749 111 134 148
-0.854627 3.08575 9.48563 182 184 197
0.239575 0.796963 9.51524 101 90 88
0.383176 -1.27532 9.83261 20 81 86
0.251708 4.44097 10.0061 130 130 122
0.298442 -2.20396 10.2132 152 133 110
0.353072 3.95845 10.0253 30 70 71
0.425822 4.85373 10.3192 39 78 83
0.769022 1.2459 10.1419 129 118 107
0.875574 -0.760759 9.84491 85 124 124
0.854253 -2.07103 11.3163 92 103 100
1.13453 -1.78157 11.3728 192 176 156
-2.78203 2.38562 12.9903 16 45 57
-0.630874 -0.795769 9.33437 134 174 213
-0.738218 4.53843 9.56763 146 104 73
-0.569958 -0.961905 9.63845 13 93 148
-0.50625 4.91199 9.64061 44 88 98
-1.95951 -3.29485 13.9303 14 50 60
0.214409 -0.48189 9.33118 142 142 155
0.660009 1.69917 10.0341 120 108 96
0.660009 1.69917 10.0341 120 108 96
0.538221 3.74704 10.4087 52 76 74
1.31914 -0.914054 8.0436 52 99 103
0.51816 3.91893 11.4459 146 140 126
0.530846 3.95439 11.4713 154 151 137
1.07717 -0.65046 11.5567 189 176 160
-0.632994 4.90568 9.59038 109 138 144
0.0102169 2.18318 9.57416 150 130 108
0.460686 -0.351358 9.51732 20 14 16
0.48004 -0.578929 9.49147 70 102 112
0.262331 4.3651 9.98492 34 77 80
0.280923 3.93792 9.96845 36 74 78
-1.09324 -0.83261 10.2914 26 96 138
0.824077 -2.04662 11.502 137 138 130
0.824077 -2.04662 11.502 137 138 130
1.37663 -1.03864 9.56817 70 125 128
0.51707 2.76691 10.0437 202 176 141
1.20121 -1.47 9.59613 180 161 143
-1.28186 -2.06196 12.0869 130 166 162
0.887336 -1.54192 10.2622 110 122 108
1.24602 -1.41235 9.69596 176 162 149
-0.816451 -2.36295 10.6106 15 46 60
-0.708542 -2.38329 10.8348 16 56 68
-2.48275 5.03931 8.19939 166 152 130
-1.68002 3.11713 9.89135 106 120 120
-1.61961 2.81879 9.83332 90 109 112
-1.43139 1.07427 9.67403 82 102 106
-1.48085 2.99354 9.70821 155 154 144
-1.50153 2.65034 9.74503 76 104 114
-1.43649 1.34457 9.72283 65 98 112
-1.40493 2.10271 9.66504 130 142 143
-1.38662 2.17966 9.66543 78 102 108
-1.25064 0.755087 9.54574 122 141 146
-1.25064 0.755087 9.54574 122 141 146
-1.26514 1.12079 9.55506 144 162 164
-1.31584 1.62898 9.60669 69 92 100
-1.30733 1.71077 9.60631 130 150 150
-1.24859 0.887824 9.5541 91 102 99
-1.40619 4.25549 9.68023 162 158 148
-1.22969 1.09291 9.53895 90 104 104
-1.21999 1.04637 9.53661 141 156 156
-1.21842 1.42067 9.54169 123 143 143
-1.16674 0.8257 9.49802 148 155 152
-1.28936 2.78723 9.60543 84 104 108
-1.28543 2.52579 9.60684 75 96 100
-1.13705 0.757467 9.47101 46 88 105
-1.21348 1.66861 9.54431 42 88 106
-1.2055 1.77347 9.55054 123 154 156
-1.13112 0.992835 9.47709 47 90 102
-1.16235 1.15394 9.51523 152 156 156
-1.32372 4.02637 9.64839 60 92 106
-1.15751 1.09244 9.51515 134 132 124
-1.14365 1.20956 9.50076 153 155 144
-1.14753 1.19327 9.51227 166 172 166
-1.16167 1.84154 9.51388 137 161 166
-1.28061 4.16046 9.62331 58 91 101
-1.28061 4.16046 9.62331 58 91 101
-1.09534 0.754649 9.47283 129 154 164
-1.13421 1.67696 9.5038 120 148 152
-1.33087 4.27498 9.69905 68 102 115
-1.15926 2.1367 9.52758 128 156 158
-1.31509 4.58813 9.6667 53 92 108
-1.12334 1.44843 9.50684 52 94 112
-1.0742 0.898707 9.45799 86 93 86
-1.07232 0.939971 9.45504 91 94 84
-1.11813 1.82298 9.51257 42 84 96
-1.04735 0.87123 9.45138 86 102 107
-1.08595 1.85681 9.48715 50 86 96
-1.09993 1.84465 9.50857 131 163 167
-1.1024 1.94725 9.5119 45 84 95
-1.14284 2.83427 9.54692 101 116 116
-1.00032 0.776863 9.42475 96 132 134
-1.01353 0.981634 9.4449 152 166 162
-1.10179 2.99618 9.54382 56 94 104
-0.972528 1.28023 9.42641 49 80 88
-0.991526 1.23685 9.45348 120 151 156
-0.982578 1.30143 9.44335 54 84 90
-1.06349 3.03028 9.50554 136 154 160
-1.10324 3.16767 9.55786 41 87 98
-1.15122 4.99797 9.58458 50 94 108
-0.973851 1.21554 9.44734 36 80 94
-0.950658 1.18012 9.42118 43 74 85
-0.954818 1.31139 9.42518 116 138 147
-1.01288 2.58953 9.49019 39 88 108
-0.965485 1.37833 9.45523 119 144 148
-1.11275 4.62542 9.576 84 124 138
-1.13687 4.56459 9.61103 38 80 98
-0.938545 1.39505 9.43847 26 74 97
-0.968516 2.21419 9.4649 42 83 94
-0.807592 0.751249 9.32528 148 156 158
-0.918214 1.26206 9.49518 110 131 140
-0.914966 2.79366 9.46341 46 86 98
-1.04413 4.91926 9.58576 84 125 140
-0.879727 1.80454 9.45222 140 150 155
-0.932027 3.19088 9.48981 56 91 104
-0.974468 3.75725 9.5386 42 40 38
-0.854875 2.0882 9.45125 50 82 90
-0.795427 1.248 9.40641 100 120 128
-0.818965 1.88609 9.43427 40 78 93
-0.818559 1.88396 9.43389 35 76 93
-1.10867 -2.11488 9.92704 122 142 154
-0.954392 4.83218 9.57562 105 144 160
-0.974107 4.83972 9.61968 59 96 112
-0.717555 1.05703 9.37078 102 142 166
-0.813029 2.71219 9.46448 31 89 114
-0.826786 3.26256 9.47829 154 160 166
-0.826788 3.26255 9.47829 154 160 166
-0.906431 4.69221 9.55652 52 94 108
-0.822591 2.80129 9.48836 145 170 182
-0.815763 2.86926 9.4811 170 188 192
-0.813076 3.48371 9.48716 32 88 109
-0.768448 2.83862 9.44309 163 179 186
-0.766775 -1.76993 9.56754 66 97 100
-0.795628 -2.0027 9.61761 84 108 128
-0.738314 2.24886 9.44011 22 81 110
-0.746681 2.40651 9.45485 157 174 188
-0.632467 1.19582 9.3574 110 142 161
-0.635775 1.21444 9.36974 22 68 93
-0.657818 -1.77949 9.49262 156 176 170
-0.672418 2.38171 9.41589 117 160 184
-0.683575 2.20573 9.44364 128 164 184
-0.689156 2.20821 9.45113 128 164 184
-0.756938 3.9109 9.51376 35 33 38
-0.818144 5.03158 9.57756 98 134 140
-0.64354 2.34651 9.40933 124 173 200
-0.661218 2.3543 9.43312 124 173 200
-0.657921 2.77489 9.43903 149 186 210
-0.786223 5.12278 9.56554 146 144 139
-0.488663 -1.49094 9.32177 45 99 112
-0.460379 -1.48023 9.2871 50 100 109
-0.603745 2.18708 9.39876 22 84 116
-0.640912 2.78307 9.45176 30 94 124
-0.666245 2.63015 9.50529 25 92 126
-0.592938 2.40105 9.4428 40 93 118
-0.684253 4.18687 9.54697 144 146 159
-0.695398 -1.28806 9.71322 50 230 250
-0.547358 2.28885 9.44957 34 88 114
-0.470941 1.2287 9.38214 26 77 105
-0.511144 -1.09633 9.53419 26 112 169
-0.41599 -1.09942 9.47837 10 90 140
-0.304858 -1.3699 9.26279 30 93 110
-0.477291 2.49758 9.4457 141 168 180
-0.50728 -1.16443 9.60801 8 94 140
-0.603381 4.97239 9.61919 42 87 101
-0.264652 -1.43927 9.29721 36 93 106
-0.360739 1.32165 9.36922 30 64 82
-0.332965 1.14297 9.37153 110 136 150
-0.323455 1.1419 9.35794 110 136 150
-0.347546 -1.98716 9.52082 8 38 56
-0.242298 -1.5564 9.3472 192 177 160
-0.5176 4.94148 9.63563 116 143 147
-0.63129 5.29173 9.83331 43 90 101
-0.408748 3.641 9.54534 50 89 98
-0.321091 2.49193 9.46366 54 90 96
-0.478472 5.02317 9.63996 104 132 141
-0.322255 2.43089 9.47908 159 174 176
-0.184241 -1.67853 9.41839 162 95 47
-0.235048 -1.92416 9.51537 155 172 178
-0.112314 -1.39047 9.31764 46 90 100
-0.333144 3.58615 9.55516 30 26 24
-0.261185 2.43663 9.48505 112 132 131
-0.362289 4.80275 9.61479 34 82 96
-0.112201 -1.60568 9.3843 161 96 55
-0.141373 -1.8855 9.46674 18 76 91
-0.246018 2.4834 9.50396 51 84 88
-0.358982 4.56399 9.6361 138 146 142
-0.225069 2.49913 9.52079 132 156 156
-0.243872 3.54419 9.56335 38 78 90
-0.108331 -1.94352 9.4997 128 151 162
-0.0537939 -1.60223 9.40053 91 106 104
-0.130229 -1.92423 9.52976 16 71 87
-0.18507 2.51433 9.51957 39 77 92
-0.0613142 1.29674 9.45285 42 76 87
-0.0965073 2.00478 9.50336 148 156 156
-0.206334 5.0026 9.60989 28 76 88
0.111305 -1.25815 9.2668 155 204 204
0.116973 -1.24402 9.3006 28 104 116
-0.00285276 -1.48002 9.48785 118 160 158
0.00689605 1.30215 9.45352 5 6 7
0.0102904 1.23801 9.45404 126 78 46
0.15089 -1.25872 9.32792 212 248 238
0.18984 -1.24777 9.31045 58 118 120
-0.750211 -1.61397 10.9617 24 90 102
0.0758541 -1.36247 9.49729 66 150 160
0.188565 -0.644927 9.36861 8 8 8
0.199744 -1.54827 9.44283 198 180 164
0.0380468 2.75799 9.62364 15 13 12
-0.0939671 4.64882 9.79692 137 87 52
-0.0802034 -1.40489 9.97168 118 212 212
0.308561 -1.22181 9.30088 65 124 126
0.263484 -1.43879 9.40437 44 100 108
0.213932 -1.54678 9.48653 63 96 96
0.291704 -1.40732 9.40056 210 220 204
0.275073 -1.40996 9.42343 210 220 204
0.183637 1.13194 9.53727 84 85 82
-0.0142763 5.10891 9.7884 56 96 100
0.0410791 3.76795 9.74342 58 78 78
0.308955 -1.42715 9.44345 38 110 122
0.0185891 -1.5312 9.98227 62 125 124
0.205341 1.15095 9.58082 6 5 4
0.205341 1.15095 9.58082 6 5 4
0.228541 1.37897 9.54371 8 1 1
0.208865 1.41416 9.58307 98 84 76
0.208865 1.41416 9.58307 98 84 76
0.271441 0.943967 9.57611 95 80 68
0.437928 -1.25085 9.38994 238 255 248
0.412757 -1.30618 9.45189 226 254 248
0.427097 -1.17293 9.4481 21 64 76
0.468328 -1.21817 9.38038 26 92 92
0.281148 -1.88685 9.7813 116 188 185
0.281148 -1.88685 9.7813 116 188 185
0.466249 -1.17856 9.45573 26 62 72
0.492045 -1.25025 9.42984 252 254 236
0.438524 -0.515313 9.50615 30 58 63
0.461748 -0.512204 9.46716 30 58 63
0.508844 -1.2217 9.44792 28 82 82
0.476162 -1.49737 9.56213 206 190 169
0.548518 -1.24742 9.47942 107 175 160
0.51271 -0.545575 9.53401 34 60 65
0.497821 -0.323884 9.55873 4 54 62
0.492003 -1.52552 9.60093 90 113 109
0.45263 -1.59092 9.66472 59 93 93
0.492368 -1.53753 9.618 146 175 170
0.563974 -1.2337 9.50161 242 254 246
0.552635 -1.37883 9.55024 208 220 195
0.288773 3.58288 9.9287 34 35 30
0.586698 -1.24833 9.50649 89 164 158
0.390833 -1.05761 9.91368 53 89 94
0.420821 1.72759 9.77012 58 102 103
0.564931 -0.486432 9.5706 96 71 56
0.320954 4.04104 10.0452 156 154 138
0.309131 3.7198 10.0872 28 66 66
0.629535 -1.39478 9.60566 32 108 114
0.572905 -1.91003 9.81129 54 86 86
0.395038 3.17485 10.0283 84 121 118
0.394587 3.72008 10.0346 24 26 15
0.469072 2.52183 9.95683 26 25 20
0.426753 3.16257 10.0158 9 25 23
0.64342 -0.310721 9.68526 81 96 96
0.497208 2.12422 9.93738 36 22 8
-0.125604 2.67322 11.2434 164 139 114
0.555021 1.51327 9.90758 24 22 22
0.655537 -1.55357 9.78428 193 171 151
0.497953 2.64357 10.0506 166 150 120
0.660405 0.63926 9.78143 87 115 116
0.648918 0.669566 9.85339 110 130 127
0.39214 4.8227 10.2877 54 80 79
0.388742 5.02568 10.3198 159 128 103
0.348642 5.08047 10.42 136 90 59
0.385138 5.02139 10.3381 136 90 59
0.564608 2.38339 10.0451 146 136 120
0.397693 5.00052 10.3555 165 129 99
0.395498 5.04808 10.3587 169 125 86
0.706097 -1.07582 9.86905 26 74 78
0.760117 -1.49639 9.83065 183 166 149
0.619363 1.9126 10.0593 126 114 99
0.523672 3.68457 10.2227 34 30 25
0.817435 -1.29492 9.74203 28 100 106
0.4744 4.36871 10.3315 62 86 80
0.668788 1.65194 9.99677 146 134 115
0.43623 4.97369 10.415 138 128 114
0.404235 4.74386 10.4596 118 125 114
0.650603 1.55135 10.0731 156 142 126
0.675409 1.66066 10.0516 16 12 6
0.499976 4.3638 10.3771 138 130 116
0.552775 3.84925 10.3393 32 34 27
0.532158 3.8662 10.3685 32 34 27
0.517977 3.80472 10.4329 70 90 84
0.544751 3.7799 10.3781 70 90 84
0.566791 3.75394 10.3426 70 90 84
0.846285 -0.607757 9.83238 138 116 98
0.893258 -0.989107 9.7524 20 80 82
0.562888 3.73968 10.3777 96 100 88
0.501953 4.70825 10.5044 119 123 110
0.390475 5.13268 10.7349 157 134 108
0.891354 -1.04111 9.81153 151 148 128
0.489724 5.03215 10.5984 156 128 104
0.484586 5.03772 10.6053 156 128 104
0.898936 -1.30598 9.84797 172 176 161
0.854395 -1.54853 9.95813 178 157 136
0.523879 4.80759 10.5464 172 127 93
0.921369 -1.13143 9.80601 30 78 78
0.899612 -1.34316 9.8669 172 174 164
0.895993 -0.769484 9.85983 16 64 70
0.885715 -0.633805 9.89472 141 120 99
0.44882 4.79906 10.7303 130 125 108
0.73714 -0.86618 10.3709 13 64 70
0.92593 -0.801071 9.90224 88 130 130
0.961931 -1.38919 9.8509 87 133 132
0.530743 4.88233 10.672 158 138 120
0.915756 -0.66942 9.93426 166 142 130
0.554919 4.79747 10.665 70 87 79
0.950511 -1.27634 9.92124 24 88 90
0.936699 -1.42019 9.96255 34 84 82
0.8975 -1.58999 10.0624 72 88 78
0.948205 -0.806622 9.94008 80 124 128
0.645197 3.75224 10.5541 155 150 138
0.952022 -0.736245 9.95296 16 22 16
0.631186 4.01707 10.6106 33 32 27
0.950376 -1.35227 9.99226 30 86 92
0.985245 -1.16356 9.93028 172 167 150
2.75387 -0.450654 5.75858 161 92 38
0.545009 4.46936 10.8337 60 82 80
0.617252 4.43308 10.6989 54 80 81
0.936894 -0.136905 10.0557 158 149 144
0.975534 -0.79611 10.0011 86 128 132
1.02224 -1.1861 9.90652 99 134 132
0.383519 5.31597 11.2309 54 82 84
0.995124 -1.11527 9.98363 30 88 92
0.626524 4.42685 10.7399 118 130 123
1.01557 -0.962078 9.93949 98 136 134
1.01557 -0.962078 9.93949 98 136 134
1.00927 -1.26296 9.98801 30 90 92
0.982544 -0.588607 10.0377 168 162 149
0.996281 -1.36519 10.0259 59 96 92
1.00995 -1.31431 10.0078 93 102 90
0.532032 4.80577 10.994 131 120 100
1.02321 -1.08661 10.0294 28 84 92
0.559891 4.85535 11.0065 80 88 80
1.18406 -1.07902 9.79307 142 164 154
0.607511 3.85032 10.9318 76 90 89
0.620991 3.83915 10.8998 70 88 88
0.687512 3.80109 10.8362 158 158 142
1.06111 -1.22863 10.0582 22 86 87
1.05589 -1.23304 10.0703 22 86 87
0.35821 3.96641 11.5816 130 138 128
1.03071 -1.51818 10.195 152 90 42
0.986767 -1.57377 10.2848 138 88 52
1.01571 -0.370085 10.1922 122 113 103
0.986654 -1.67303 10.3073 88 94 82
0.608841 3.8974 11.0849 70 84 79
1.07897 -1.19372 10.0883 23 74 80
0.588803 4.15672 11.1678 148 144 130
0.588803 4.15672 11.1678 148 144 130
0.689938 3.78363 10.9685 135 137 125
0.618211 4.10078 11.1268 67 67 58
0.641542 4.07853 11.0776 67 67 58
0.524826 4.50171 11.3637 138 138 124
0.746182 2.71392 10.887 37 35 29
0.616815 3.84166 11.1848 72 70 58
0.619623 3.91839 11.191 76 72 61
0.586397 4.16385 11.2722 138 134 120
0.817467 2.14432 10.7747 80 100 96
0.607528 3.91105 11.2641 130 126 114
0.573158 4.00183 11.3772 137 133 119
1.06754 -0.277464 10.2761 100 76 60
1.04923 -0.281079 10.3157 100 76 60
1.11954 -1.43043 10.2687 43 84 85
1.08822 -1.55234 10.4214 185 160 134
1.0789 -0.359506 10.3925 16 11 12
1.00071 -1.96262 10.6917 89 106 104
1.06003 -1.71023 10.5798 164 154 141
1.00804 -1.98156 10.7441 22 33 30
0.842371 -1.92666 11.2296 74 98 94
1.11044 -1.49397 10.508 175 159 137
1.08514 -0.20138 10.5392 27 18 14
0.877134 -1.11279 11.153 80 106 106
1.05064 -1.71034 10.7213 167 156 136
1.08552 -0.392006 10.6271 132 106 87
1.07908 -1.67098 10.6918 110 104 88
1.14942 -1.50077 10.5163 108 105 88
1.11776 -1.64431 10.6649 170 152 128
1.11107 -0.148686 10.5981 38 32 26
1.18724 -1.16159 10.4589 78 106 110
1.10319 -0.0857612 10.6756 42 34 26
0.940717 -1.66519 11.2162 172 156 137
0.991954 0.694758 10.9695 152 139 122
0.856909 -2.01375 11.4874 188 170 152
1.24276 -1.16852 10.5114 48 74 75
1.20522 -1.16109 10.6075 112 138 129
1.24514 -1.14953 10.5388 112 138 129
1.22291 -1.28491 10.5965 112 138 134
1.21452 -0.987605 10.6249 104 126 122
1.21704 -1.43207 10.7167 152 156 146
1.2484 -1.23258 10.6617 64 92 90
1.24071 -1.17027 10.6801 116 138 135
1.12145 -0.490807 10.9954 158 140 124
1.07827 -0.338408 11.1496 155 142 128
1.23108 -1.22179 10.7461 148 156 142
1.23108 -1.22179 10.7461 148 156 142
1.17398 -1.01599 10.9036 107 124 120
1.03646 -1.20148 11.4183 64 94 94
1.06146 -0.667991 11.4521 102 102 95
-1.44729 3.23941 9.72685 70 101 112
-1.12916 0.794359 9.48275 145 163 164
-1.11355 0.915069 9.48197 152 163 160
-1.29326 5.02682 9.6644 78 106 112
-1.16762 3.07568 9.56354 164 172 168
-1.01329 0.982282 9.44479 155 169 166
-1.15311 3.4731 9.57042 54 59 50
-1.12548 3.54062 9.56385 54 53 50
-1.12548 3.54062 9.56385 54 53 50
-0.950253 1.1781 9.42992 48 82 94
-1.11314 4.72461 9.60369 48 84 102
-0.891964 1.33908 9.4266 124 152 162
-0.852266 1.37907 9.41582 42 79 94
-0.84395 1.17351 9.41222 36 76 92
-0.925697 2.83824 9.50131 80 100 102
-0.789646 1.01393 9.39482 39 74 84
-0.811517 1.21678 9.42378 137 141 146
-0.781927 1.02862 9.39145 116 137 148
-0.946261 4.53522 9.57034 108 140 152
-0.808642 2.37211 9.45042 39 84 104
-0.814991 2.86926 9.48074 170 186 190
-0.825222 3.23082 9.49188 38 92 113
-0.745646 -1.88514 9.57796 57 92 102
-0.663904 2.32051 9.41857 173 186 196
-0.66188 -1.96772 9.56109 70 98 110
-0.66188 -1.96772 9.56109 70 98 110
-0.63146 2.42583 9.45111 50 96 117
-0.462008 1.08881 9.3738 108 135 156
-0.449425 1.34588 9.38997 93 126 149
-0.463479 2.39431 9.43965 179 186 192
-0.268903 -1.39513 9.272 67 101 106
-0.460919 2.49738 9.46234 35 90 112
-0.560839 5.06736 9.61359 156 163 160
-0.392947 2.36315 9.45021 54 85 91
-0.327118 1.25289 9.38566 88 121 142
-0.549046 5.18031 9.62414 152 146 137
-0.372401 2.5309 9.46803 52 90 94
-0.224093 -1.71868 9.45821 185 176 160
-0.289916 2.45551 9.48683 152 167 168
-0.289916 2.45551 9.48683 152 167 168
-0.263644 2.39099 9.46511 132 162 166
0.0686641 -0.654811 9.32031 64 116 138
-0.0405301 1.24946 9.45056 11 9 10
0.101134 -1.19382 9.29386 60 95 120
0.0393746 -1.59734 9.44137 166 94 38
0.166276 -1.17489 9.29474 68 121 145
0.18553 -0.608535 9.35444 6 6 10
0.204954 -1.57128 9.47217 198 182 162
0.201701 -1.56772 9.47225 198 182 162
-0.0803251 4.97885 9.81621 143 86 44
0.315107 -1.29783 9.39005 72 160 166
0.271075 1.14699 9.54741 38 65 72
-2.19879 -3.52943 14.1694 101 90 84
0.12223 4.71707 9.93561 174 133 97
0.103601 5.10133 9.96737 34 76 83
0.475399 -1.37332 9.51717 96 137 128
0.4827 -0.43727 9.54484 94 70 53
0.479491 -0.439414 9.55264 94 70 53
0.510675 -0.322402 9.53665 6 56 68
0.462588 -1.9226 9.73881 60 94 101
0.295826 3.52877 9.93434 32 68 68
0.455916 2.28772 9.90446 116 133 123
0.464358 2.72391 9.97983 23 20 12
0.495396 2.22866 9.93198 26 12 5
0.664921 -0.274215 9.6903 73 92 92
0.617315 1.04155 9.85153 98 118 116
0.498659 2.78401 10.0633 156 131 99
0.390842 4.76268 10.2836 136 92 52
0.641523 1.03031 9.87511 18 14 16
0.69868 0.969267 9.83011 139 98 65
0.394864 5.04895 10.3588 168 126 88
0.43057 4.71442 10.3237 130 90 58
0.435949 4.65894 10.3717 30 74 78
0.48071 4.54497 10.2879 34 78 82
0.441766 4.94104 10.4491 40 76 80
0.82528 -1.41893 9.79339 34 93 104
0.822081 -0.677177 9.87458 12 14 12
0.676774 2.04458 10.1504 66 106 108
0.491957 5.04895 10.5554 78 85 78
0.898497 -1.07424 9.80301 32 74 77
0.850169 -1.70823 9.99486 36 78 80
0.57731 3.8821 10.496 34 73 78
0.843996 -1.68058 10.0492 174 160 138
0.930159 -1.1634 9.84183 162 158 139
0.536368 4.84784 10.6231 136 93 58
0.542536 4.76909 10.6034 161 138 118
0.56972 4.03355 10.5722 30 69 70
0.797591 1.33538 10.1825 53 91 91
0.804158 1.34498 10.1841 53 91 91
2.03067 0.527713 7.38928 22 16 16
0.586428 4.48382 10.6615 142 136 120
0.945321 -1.48201 10.0252 44 76 71
0.666676 3.75021 10.6017 39 34 29
0.697174 3.78796 10.7593 51 80 80
0.710352 3.73749 10.808 46 46 38
1.05576 -0.971517 10.0952 85 126 128
1.01398 -1.54677 10.2235 148 88 48
1.01512 -1.54595 10.2217 148 86 45
1.07086 -1.05272 10.1208 162 156 145
1.02406 -1.55792 10.2638 177 154 129
1.93584 -0.0135814 8.03905 40 61 66
0.931103 1.65325 10.7487 40 32 25
1.08449 -0.216359 10.3916 104 90 81
1.09162 -0.213271 10.458 108 101 94
1.16262 -1.44598 10.4775 64 88 83
1.22295 -1.22838 10.3158 49 71 68
1.17617 -1.44456 10.5428 67 88 80
1.16318 -1.52778 10.6663 85 90 80
1.23052 -1.1317 10.4688 43 68 66
1.21655 -1.29872 10.5988 107 137 132
1.26804 -1.21907 10.5247 108 138 130
1.23503 -1.18609 10.7809 130 150 139
-0.0269755 -1.45525 10.4669 23 82 84
0.292901 3.57518 9.92106 32 30 26
0.515699 1.86348 9.88872 14 13 10
0.544851 2.67795 10.0919 164 148 124
0.788192 -1.40581 9.8028 86 141 144
-0.638485 2.31866 9.43828 132 162 180
-0.638485 2.31866 9.43828 132 162 180
-0.431669 1.31894 9.38846 19 70 94
-0.103568 1.83431 9.48907 130 150 150
-0.0593482 2.63707 9.57812 96 120 121
0.191271 -0.61095 9.34757 9 9 11
0.190718 -0.6093 9.34689 9 9 11
0.073939 2.03654 9.58804 146 130 113
0.573032 -1.21349 9.49797 76 130 120
0.596385 -1.45166 9.617 40 114 120
0.612013 -1.50875 9.64747 216 210 188
0.691825 -0.596871 9.65546 66 88 86
0.566981 2.74592 10.143 53 82 81
0.827723 -1.28445 9.76115 156 197 193
0.744004 -0.806551 10.1371 64 104 109
0.867876 4.43166 9.74993 44 78 79
0.851214 -0.759974 9.97062 80 97 97
0.967076 -0.60298 10.0009 144 131 122
1.01712 -1.08807 10.0317 24 82 92
1.0695 -1.05265 10.1206 136 134 126
0.896988 -1.6931 10.7291 174 154 128
-0.160843 -1.43528 9.32142 63 102 103
0.0915298 -1.4391 9.37673 108 152 154
0.458375 -1.90134 9.74888 158 189 180
0.572936 -1.33866 9.56556 75 136 132
0.769316 -1.7079 10.6697 58 80 74
0.42232 -1.95758 11.6719 168 150 127
0.700974 -2.1993 11.5119 128 118 106
-1.21226 -1.31922 10.625 66 140 170
-0.46594 -1.10787 9.50267 93 166 219
-1.13172 -1.35748 10.5545 40 102 123
-0.135454 -1.90721 10.1606 163 156 141
0.0598727 -1.24807 10.905 80 116 116
0.570756 3.95262 10.3661 34 77 80
0.887414 -1.95896 10.7969 29 65 68
-0.216156 -1.65887 10.9907 183 210 200
1.15941 -1.75649 9.9345 178 182 168
1.38924 1.93314 9.27563 88 116 125
-3.15176 2.78978 12.0149 42 79 82
-2.17639 -2.76044 11.6858 37 64 73
-1.49208 0.868833 9.73308 116 124 120
-1.49123 2.29884 9.7559 112 128 127
-6.99428 1.87104 15.9631 134 159 172
-1.31227 2.1842 9.60946 167 170 156
-1.30142 2.53094 9.6224 94 110 108
-1.29486 3.05384 9.61509 150 163 157
-1.16428 1.15478 9.5171 154 162 162
-1.16794 1.17719 9.52557 72 100 98
-1.41058 5.01852 9.71605 86 108 114
-1.16631 1.63563 9.53454 70 95 100
-1.13353 1.60876 9.51274 61 91 97
-1.15646 3.20781 9.54872 157 165 161
-1.15646 3.20781 9.54872 157 165 161
-1.01959 1.21311 9.46395 140 166 168
-1.21427 4.55991 9.61065 81 102 107
-1.215 4.92224 9.61148 137 152 153
-1.0168 1.51326 9.47173 132 158 158
-1.0168 1.51326 9.47173 132 158 158
-0.9468 0.640546 9.41845 132 148 154
-0.954342 1.44844 9.44833 36 84 96
-1.05438 3.04889 9.5363 136 159 163
-1.04175 2.85885 9.52926 171 178 170
-0.926506 1.17067 9.43342 34 82 103
-0.995264 2.42311 9.54265 42 91 112
-0.895719 1.77889 9.45063 114 140 149
-0.895169 1.77966 9.45108 114 140 149
-0.929732 2.7976 9.49456 48 95 110
-0.981666 3.76251 9.5459 54 53 50
-0.856146 1.89777 9.45063 120 140 145
-0.794867 1.14909 9.40108 102 132 148
-0.79976 1.24732 9.41196 112 128 138
-0.791 1.26358 9.40778 38 77 92
-0.769562 1.09157 9.39729 36 75 92
-0.987995 5.06057 9.57441 85 106 110
-1.0104 4.82912 9.60764 69 103 112
-0.803313 2.3921 9.44023 120 150 164
-0.963561 2.90953 9.57819 86 107 108
-0.796029 1.90593 9.44938 38 78 90
-0.807437 2.44291 9.49467 127 162 172
-0.807437 2.44291 9.49467 127 162 172
-0.67368 -1.6461 9.43464 70 94 95
-0.879567 4.74802 9.581 100 140 162
-0.788476 3.48772 9.51064 167 176 177
-0.847647 4.67608 9.56763 36 92 112
-0.71306 2.452 9.45649 140 176 188
-1.59622 3.09877 10.535 50 100 127
-0.85717 5.08899 9.58285 48 86 103
-0.822304 4.74121 9.55339 108 144 165
-0.602716 1.20542 9.37749 106 142 164
-0.818917 5.03186 9.57836 100 140 148
-0.810997 4.78972 9.57668 129 152 164
-0.677566 2.77008 9.49422 150 184 206
-0.387676 -1.40147 9.28663 48 98 105
-0.399583 -1.47923 9.3336 54 94 98
-0.599051 -1.86882 9.58352 192 180 172
-0.42817 -1.56436 9.38791 174 105 60
-0.310144 -1.32701 9.24335 29 97 111
-0.547808 2.67808 9.45675 151 192 212
-0.545062 2.35214 9.46133 142 179 198
-0.538825 2.32282 9.45637 34 86 110
-0.445086 1.30912 9.38393 21 63 92
-0.524556 2.53457 9.45505 146 180 204
-0.524556 2.53457 9.45505 146 180 204
-0.301407 -1.34023 9.26642 148 182 187
-0.305105 -1.34124 9.27108 148 182 187
-0.503342 2.35028 9.44062 136 174 190
-0.415826 -1.69843 9.43722 164 102 59
-0.387239 -1.66484 9.4143 204 175 155
-0.421557 1.35233 9.3925 84 118 138
-0.27316 -1.41346 9.28901 144 185 191
-0.476999 2.61904 9.47226 49 94 112
-0.561644 4.98908 9.59576 93 133 142
-0.423078 -1.98191 9.6065 53 90 108
-0.353813 -1.9506 9.51194 53 90 108
-0.398362 2.38124 9.46551 142 169 178
-0.545784 4.70827 9.61776 162 158 144
-0.380156 2.37633 9.46837 54 90 98
-0.366229 2.54295 9.47548 146 170 174
-0.297165 -1.9366 9.503 48 84 106
-0.446895 4.66575 9.58487 140 100 66
-0.384969 4.21811 9.56969 34 88 107
-0.285838 2.47414 9.49556 42 82 84
-0.350274 4.05031 9.5942 164 162 156
-0.286886 3.9661 9.58574 38 86 102
-0.217924 2.46177 9.51549 30 81 92
-0.0550608 -1.60146 9.39992 84 99 98
-0.191791 2.53746 9.51468 34 85 96
-0.0929984 -2.00369 9.50137 85 84 90
-0.0062299 -1.51459 9.37854 184 172 156
-0.29722 4.66553 9.70558 150 92 46
-0.00781009 -1.70531 9.4622 90 98 91
0.0874336 -1.36144 9.33376 102 164 168
0.000551664 -1.96807 9.54203 4 26 40
0.0417045 -1.92803 9.5325 143 172 182
-0.112426 -1.42614 9.71295 61 126 128
0.251515 -1.30204 9.37835 63 144 146
-0.0215985 3.58145 9.69294 33 73 80
0.15355 -1.92104 9.60001 208 214 208
0.0561114 3.75875 9.73012 42 77 87
-0.294814 5.20132 10.3343 122 132 126
0.121706 3.6344 9.76378 24 72 80
0.411372 -1.30718 9.45128 220 254 248
0.483581 -0.586469 9.51841 54 94 100
0.483581 -0.586469 9.51841 54 94 100
0.532494 -1.28673 9.49947 118 190 182
0.153541 4.97914 9.95767 143 82 32
0.546785 -1.27118 9.4983 234 255 253
0.503126 -1.51077 9.59476 33 94 98
0.481475 -1.63671 9.63967 40 90 93
0.551249 -1.31927 9.52378 84 188 187
0.200095 4.37044 9.96389 126 130 122
0.45997 -1.89775 9.74226 164 202 194
0.596499 -1.18536 9.52221 102 128 130
0.585597 -1.35321 9.56962 206 248 234
0.538214 -1.60601 9.65898 109 156 154
0.412149 1.72659 9.78008 56 96 97
0.21665 4.88103 10.0712 30 74 82
0.609065 -0.509353 9.58947 100 66 40
0.589402 -0.513689 9.62168 100 66 40
0.436156 2.01929 9.8163 52 97 100
0.356758 3.80053 10.0295 26 72 75
0.279128 4.99563 10.1601 154 138 124
0.456141 2.62979 9.93567 28 16 4
0.508375 2.14651 9.90097 25 20 16
0.531455 1.85833 9.90886 29 10 0
0.414293 3.74985 10.0756 30 26 22
0.660055 -1.65359 9.85285 162 92 33
0.714502 -0.249488 9.76573 16 10 7
0.465773 3.7616 10.1185 162 154 140
0.72411 -1.5747 9.84871 38 80 80
0.57948 2.35319 10.0251 26 19 6
0.57948 2.35319 10.0251 26 19 6
0.471499 3.87299 10.1944 33 72 79
0.565415 2.66537 10.0563 163 147 122
0.593247 2.41136 10.037 26 20 9
0.796229 -1.44364 9.80689 29 84 86
0.829763 -1.25902 9.76712 140 186 179
0.409673 4.40465 10.401 140 142 130
0.669401 1.64162 10.0185 22 12 2
0.677031 1.64028 10.0111 25 16 8
0.843652 -1.40014 9.8278 73 108 108
0.675864 1.58294 10.0638 27 21 15
0.529033 3.84835 10.2856 30 28 22
0.450897 4.7809 10.4393 135 88 46
0.890492 -1.16366 9.83088 158 158 143
0.846424 -1.00791 9.9053 20 79 82
0.899134 -1.05315 9.84649 45 73 74
0.92732 -1.25881 9.83111 28 99 101
0.917684 -1.31755 9.86121 64 100 91
0.499659 4.85542 10.4937 150 141 122
0.464386 5.04554 10.5972 156 131 106
0.811149 -1.95171 10.1407 18 28 24
0.590761 -2.03416 10.5205 146 158 150
0.528492 4.74814 10.5403 167 124 88
0.95558 -1.39804 9.96604 158 171 159
0.916598 -1.54549 10.0535 86 90 82
0.916598 -1.54549 10.0535 86 90 82
0.951928 -0.614519 9.97175 165 152 146
0.964676 -0.605055 10.0038 168 154 148
0.994386 -1.28809 9.98158 66 100 94
0.985381 -1.43256 10.044 36 84 84
1.0198 -1.18026 9.97855 29 86 94
0.635079 4.01413 10.6084 30 28 24
2.63454 -0.387391 6.8048 104 151 152
1.04676 -1.21919 10.019 29 83 80
1.04929 -1.21407 10.0342 24 89 92
0.912704 -1.94044 10.3245 40 56 56
1.01732 -0.688709 10.0901 20 73 79
0.921235 -1.90253 10.3438 29 60 54
1.02378 -0.566782 10.1026 24 22 24
1.06723 -1.03836 10.0307 76 90 85
1.06693 -1.11122 10.0588 151 166 160
1.02308 -0.675229 10.1487 90 131 132
1.04087 -0.67047 10.1158 90 131 132
1.00662 -0.183824 10.1678 88 114 116
1.07493 -1.1649 10.0712 148 168 158
0.915783 -1.14945 10.322 31 87 93
0.988896 -1.67208 10.3047 84 90 80
0.947652 -1.89603 10.4074 27 60 55
1.01058 -1.62942 10.2797 176 160 139
1.01357 -0.120114 10.2551 63 98 97
1.06285 -0.170148 10.1544 60 88 94
0.958486 -1.91027 10.4363 112 136 128
0.799053 -1.08635 10.7702 93 123 123
0.963741 -1.92818 10.4636 114 130 127
1.07668 -0.617863 10.1974 68 106 108
1.01801 -1.65523 10.362 158 94 44
1.07408 -0.485505 10.2265 62 78 78
1.07317 -1.47595 10.262 44 78 78
0.97567 -1.93056 10.4911 45 64 62
1.06293 -0.476591 10.278 70 85 85
1.0537 -0.176748 10.2981 54 78 82
1.11325 -0.182586 10.1589 54 78 82
1.00826 -0.0526277 10.4038 16 54 62
1.07341 -0.253853 10.284 107 89 78
1.37581 -0.274634 9.7356 109 85 62
0.979117 -1.92308 10.5386 32 59 52
0.981884 -1.92966 10.5388 32 59 52
1.00471 -0.420219 10.4554 13 18 14
1.07782 -1.55159 10.369 188 160 134
1.0735 -1.63369 10.4716 144 102 66
1.04013 -1.72282 10.5449 51 82 81
1.10649 -1.59073 10.4513 184 163 143
1.09327 -1.5602 10.4792 140 94 60
1.18399 -1.23032 10.3334 24 60 60
1.00725 -1.93733 10.781 126 138 130
1.1967 -1.18652 10.3415 22 66 70
0.90319 1.89005 10.9085 40 33 24
0.996239 1.04957 10.7436 144 116 89
1.13487 -1.59249 10.5852 150 97 55
1.12158 -1.5143 10.7193 172 163 146
0.974494 -1.94865 10.9781 134 134 124
1.16806 -1.42655 10.5297 142 158 149
1.16081 -1.52334 10.5724 148 106 76
1.15698 -1.55758 10.62 176 158 142
1.01442 -1.74655 10.9348 160 150 130
1.1072 -0.13945 10.7354 150 132 110
1.19772 -1.44862 10.5988 72 88 80
1.21912 -1.26414 10.5328 110 142 138
1.22188 -1.15554 10.5698 102 124 120
1.1749 -0.561784 10.7152 140 130 116
1.15121 -1.50656 10.8021 160 150 136
1.19344 -0.593056 10.6907 40 34 33
1.17905 -0.644782 10.7438 36 32 28
1.16597 -0.528147 10.7833 151 135 118
1.23702 -0.66147 10.6543 28 37 36
1.23792 -1.19118 10.6649 46 84 82
1.10596 0.0203912 10.9754 154 140 127
1.19319 -0.57968 10.7984 40 37 28
1.23334 -1.39059 10.7635 147 158 150
1.23471 -1.20857 10.7732 61 88 84
1.29729 -1.21378 10.6908 58 84 79
1.15313 -1.42165 11.0465 77 102 100
1.08964 -0.38949 11.2081 74 84 82
-0.925688 1.16868 9.432 44 88 104
-0.832287 1.16184 9.41438 51 91 104
-0.778599 2.30756 9.4525 44 93 114
-0.436402 1.172 9.38265 30 76 104
-0.13912 -1.37684 9.35341 37 94 110
-0.201529 2.48928 9.52388 40 84 97
0.24 -1.3696 9.54103 74 145 144
0.38246 -0.985985 9.40476 68 114 124
0.477707 -1.14272 9.50937 97 126 134
0.532912 -1.21342 9.486 152 184 177
0.544244 -1.59218 9.66957 38 88 90
-0.500333 -1.84192 11.8334 42 104 104
0.454275 1.44979 10.083 16 12 11
0.761499 -1.42156 9.79926 86 140 141
0.727737 -1.69541 9.92416 185 170 149
1.62708 1.55234 8.33703 14 19 18
0.842682 0.657605 10.0863 128 119 114
0.893089 -1.59093 10.0632 64 80 72
0.960014 -0.798482 9.99968 78 121 122
0.924939 -1.90007 10.3389 24 63 59
0.964129 -1.92951 10.4651 118 136 134
0.973603 -1.93035 10.4944 40 64 62
1.08453 -1.60144 10.492 184 164 144
1.0842 -1.67498 10.5851 145 98 64
1.19395 -0.624293 10.4968 76 106 109
-0.783551 3.48778 9.50259 157 166 170
-0.692435 2.43145 9.4539 56 102 116
-0.436522 2.64046 9.51393 29 89 110
-0.360903 -2.0056 9.58268 18 51 72
0.18962 -1.28104 9.33016 62 114 118
-0.0225744 2.71896 9.60168 106 126 126
0.216517 -0.715982 9.35801 65 105 121
0.492272 -1.58846 9.64333 156 191 188
0.426236 -1.17144 9.9098 8 70 78
0.567826 -1.68908 9.75711 206 193 170
0.281259 4.8219 10.114 29 72 80
0.809769 -1.32697 9.75424 58 124 122
0.63325 3.651 10.4667 32 72 72
0.980738 -1.38095 9.99827 168 175 165
1.02071 -1.30475 10.0304 36 85 88
1.00836 -1.81545 11.6864 191 174 155
-1.24062 4.88728 9.89343 139 154 160
-0.669492 2.36978 9.45079 120 152 165
0.0237275 -1.69494 9.4357 96 101 88
-0.158508 3.61727 9.57652 38 37 36
0.993263 -1.94124 10.7423 126 138 130
0.999114 -1.93119 10.8482 136 145 133
1.88971 0.00396957 8.85817 27 59 61
0.132238 -1.43567 9.34847 58 100 110
-2.20159 -1.81117 12.7496 72 106 113
0.792351 -2.02217 10.8497 54 73 70
0.686609 -0.597938 9.6657 54 77 82
0.684133 -0.561639 9.6752 15 12 12
-1.94033 2.65479 12.2251 136 112 94
0.999399 -0.66152 9.94765 27 26 23
1.31725 -0.213857 9.51534 12 12 10
1.72133 -1.02794 9.26362 142 146 142
1.18908 -0.52347 10.2182 68 108 112
0.256149 -1.42987 10.5615 43 94 94
0.522206 1.51042 10.0731 90 74 56
0.747068 -1.36645 10.4102 46 103 106
1.12302 -1.20644 10.6914 98 111 106
0.983399 -0.580014 10.0398 156 145 138
1.13371 -1.1037 9.82897 128 164 170
-2.5189 5.21455 8.28199 174 158 138
-1.19691 0.997283 9.53467 98 118 122
-1.34746 2.06558 9.64499 107 124 124
-1.33728 2.43383 9.66668 161 164 158
-1.16018 2.87468 9.56507 170 178 168
-0.855703 0.614266 9.38169 58 96 110
-0.952339 1.34907 9.45042 152 156 148
-0.909502 1.46745 9.42331 134 156 160
-0.970676 2.11922 9.48063 65 101 115
-0.904594 1.8238 9.45992 150 164 171
-1.15314 4.45848 9.61999 144 160 158
-0.760005 1.03561 9.39771 64 90 100
-0.925473 2.90829 9.49913 80 106 107
-1.00249 3.72759 9.5563 60 60 54
-0.70297 1.12625 9.38997 114 144 154
-1.07087 4.85151 9.62449 139 160 164
-0.691911 1.11161 9.39627 42 78 93
-0.748179 2.28149 9.45151 106 144 154
-0.600728 1.2046 9.37419 103 138 156
-0.712741 2.39859 9.46418 124 160 172
-0.581306 1.12164 9.38402 114 144 168
-0.550627 1.13768 9.38181 30 80 108
-0.849395 4.75699 9.56007 67 104 116
-0.636416 2.28534 9.44809 92 138 161
-0.641629 2.43053 9.45847 60 97 108
-0.507729 1.1372 9.37594 24 69 98
-0.7183 3.9428 9.52404 174 176 176
-0.596621 2.41883 9.45375 130 165 180
-0.583859 2.45472 9.45109 30 95 122
-0.77625 4.65929 9.58375 170 155 142
-0.432924 1.14419 9.38099 103 136 162
-0.558591 2.62657 9.4576 152 168 183
-0.280108 2.52018 9.23184 60 106 120
-0.532527 2.66347 9.49814 42 95 120
-0.270222 -1.64121 9.41445 104 112 104
-0.262472 -1.66415 9.42428 192 177 158
-0.269201 -1.70947 9.44657 192 176 159
-0.310102 1.18538 9.40175 81 122 142
-0.420546 2.44397 9.48149 56 116 136
-0.298358 1.23418 9.40314 75 112 136
-0.234325 -1.97993 9.53382 20 59 82
-0.094894 -1.49526 9.37238 186 176 164
-0.323381 2.36781 9.47912 126 163 172
-0.520121 4.55758 9.62659 146 145 144
-0.425589 3.99426 9.57455 167 164 156
-0.039459 -1.44756 9.39206 28 102 119
-0.116637 -1.94822 9.53892 27 77 102
0.0372915 -1.5159 9.3927 168 102 54
0.109858 -1.20305 9.31478 147 174 205
-0.353891 4.56464 9.63481 147 153 148
0.123092 -1.18222 9.31923 47 98 136
0.175547 -1.18938 9.31688 97 148 181
0.156735 -1.19009 9.33367 97 148 181
0.270697 -1.2579 9.22639 158 192 196
-0.212775 3.62786 9.62102 38 36 34
0.203789 -1.20728 9.35886 24 95 116
0.235499 -1.25689 9.33789 194 212 211
0.236223 -1.17825 9.33911 128 158 178
0.182821 -1.54521 9.45726 191 178 162
0.0234648 1.70488 9.53139 168 157 143
-0.199748 4.55375 9.7028 34 82 96
0.253974 -1.39474 9.41375 58 110 112
0.275128 -1.30967 9.39183 190 224 214
0.168517 -1.34601 9.51671 190 224 214
0.189133 -1.66569 9.51876 186 170 148
-0.298929 -2.29468 10.1057 228 217 206
-0.135242 4.30952 9.7357 148 162 160
0.0564558 2.04027 9.61413 178 166 152
0.394377 -1.16083 9.42388 109 146 154
0.357444 -1.43065 9.49084 34 107 119
0.373598 -1.42787 9.47563 34 107 119
0.416351 -1.1944 9.42223 148 160 163
0.396509 -1.36586 9.45755 58 130 133
-0.0692268 4.67041 9.79071 184 151 126
0.0324972 3.76429 9.74948 66 88 86
0.402931 -0.528562 9.48133 0 4 8
0.416603 -0.426176 9.4883 108 104 101
0.453688 -1.25781 9.47735 248 254 240
0.438407 -0.512906 9.53406 3 7 8
0.500609 -1.37023 9.56081 74 137 136
0.516763 -1.5371 9.61263 55 99 100
0.0894066 4.90516 9.95745 128 136 128
0.591252 -1.32871 9.58159 109 190 187
0.48062 -0.482661 9.73601 88 82 73
0.511756 -1.87947 9.77656 52 116 118
0.228702 3.99009 9.92791 20 17 14
0.57185 -1.47582 9.698 208 192 174
0.160765 4.79094 9.99657 141 90 44
0.202618 5.11599 9.94584 79 116 117
0.413611 2.02486 9.84519 48 90 96
0.682404 -0.601269 9.66408 45 66 69
0.593061 -1.94686 9.8892 14 36 37
0.469635 1.7373 9.92176 135 81 38
0.756737 -1.052 9.66365 88 90 84
0.750593 -1.05437 9.67015 88 90 84
0.717162 -0.647683 9.71593 47 80 78
0.626196 -1.98756 9.8986 73 63 54
0.360536 3.73733 10.0701 22 23 18
0.510552 2.24319 9.94207 140 92 55
0.788855 -1.37716 9.72149 38 114 117
0.473693 2.48931 9.98284 140 108 78
0.809199 -1.25069 9.73541 68 138 133
0.484395 2.75165 10.018 148 108 70
0.394088 3.72387 10.08 26 24 20
0.220693 -1.25661 10.6709 100 102 95
0.404621 3.80378 10.1148 26 22 18
0.412527 3.79498 10.1065 26 22 18
0.166836 -1.18255 10.6494 56 96 100
0.518114 2.61952 10.0257 149 132 107
0.89189 -0.693801 9.68629 66 100 104
0.352223 4.67728 10.2069 132 132 122
0.468269 3.64244 10.1703 28 70 73
0.415352 4.45333 10.2185 138 132 118
0.568748 2.51979 10.0953 156 140 113
0.638748 1.68629 10.048 15 7 2
0.570728 2.5908 10.1149 22 19 19
0.824294 -1.60929 9.94842 155 166 158
0.819229 -1.58381 9.95458 38 80 85
0.83423 -1.57945 9.93765 38 80 85
0.833775 -1.57968 9.93812 38 80 85
0.901485 -1.27909 9.84279 56 109 103
0.380374 5.02162 10.3397 136 94 56
0.827174 -1.6534 10.0321 152 90 37
0.909973 -1.31191 9.90634 35 106 110
0.895105 -1.51405 9.96822 171 94 37
0.929561 -1.36906 9.92069 58 106 98
0.41783 5.07251 10.3845 142 81 36
0.508417 4.05761 10.3183 47 77 78
0.430656 5.09263 10.4058 164 146 124
0.441383 5.12107 10.4415 50 82 80
0.444058 4.95669 10.4418 38 73 74
0.503826 4.45251 10.4135 46 78 80
0.851414 -1.9267 10.1844 161 157 143
0.840488 0.661559 10.094 116 111 110
0.765713 1.20189 10.185 141 126 108
0.489561 4.83279 10.4902 132 126 112
0.857113 0.851329 10.133 46 76 80
0.995327 -0.765652 9.99727 75 120 118
1.00068 -0.74808 10.0016 74 116 118
0.497316 5.04361 10.5485 75 86 76
1.37452 -0.949446 9.56547 22 83 90
1.04569 -1.18291 10.0342 142 170 160
1.03968 -1.04023 10.0838 122 143 143
0.549705 4.79698 10.5972 162 140 117
0.551192 4.80277 10.6022 162 140 117
0.554042 4.73705 10.6227 126 94 64
1.11906 -1.09136 10.0193 38 78 75
0.479961 -2.15816 11.0043 46 68 66
0.944671 -1.92123 10.3689 46 68 66
