ply
format ascii 1.0
element vertex 1291
property float x
property float y
property float z
property uchar red
property uchar green
property uchar blue
end_header
-0.345337 0.193505 3.82311 64 67 63
-0.387641 0.202799 3.969 75 1 40
-0.301828 0.181719 3.63214 128 109 102
-0.305773 0.182791 3.63521 90 78 71
-0.347905 0.192116 3.79561 0 30 14
-0.397102 0.202444 3.97632 121 117 114
-0.314171 0.187889 3.6414 70 3 37
-0.347263 0.190722 3.76703 54 90 60
-0.399296 0.202476 3.96497 108 104 106
-0.398105 0.201714 3.96046 44 10 26
-0.357054 0.193826 3.79259 12 40 10
-0.37311 0.199455 3.8533 48 0 8
-0.345543 0.152762 3.74578 36 80 60
-0.320538 0.18614 3.62872 123 110 103
-0.409626 0.200447 3.96189 58 11 34
-0.409659 0.200296 3.96194 58 11 34
-0.371991 0.193264 3.80556 68 84 66
-0.415689 0.200166 3.97089 1 18 7
-0.3761 0.191918 3.80135 40 80 54
-0.416418 0.198444 3.96184 92 95 92
-0.422283 0.200584 3.98435 1 6 9
-0.416383 0.198009 3.95717 120 114 114
-0.419949 0.198495 3.95949 24 22 28
-0.412882 0.196555 3.92267 89 92 86
-0.427069 0.197091 3.97977 98 98 100
-0.43014 0.219779 3.98328 98 98 100
-0.420089 0.194691 3.94791 2 13 9
-0.430895 0.196739 3.98623 0 20 12
-0.382637 0.191682 3.7854 1 18 1
-0.384556 0.190721 3.78738 58 84 62
-0.416961 0.191273 3.91639 64 62 44
-0.391914 0.191863 3.81028 42 74 50
-0.435091 0.196199 3.98391 93 80 86
-0.465163 0.0682947 4.13734 150 74 6
-0.420682 0.194276 3.91649 14 22 9
-0.420491 0.193541 3.91613 14 22 9
-0.386069 0.189361 3.76683 76 90 72
-0.43342 0.206583 3.95047 96 97 86
-0.388262 0.186507 3.76806 0 30 14
-0.428324 0.192417 3.92719 0 4 6
-0.437605 0.202417 3.96033 20 2 13
-0.444133 0.198005 3.95199 26 4 16
-0.443047 0.191657 3.95076 26 4 16
-0.430323 0.181565 3.83695 110 83 98
-0.429691 0.181248 3.83297 114 86 98
-0.424786 0.17116 3.80667 86 44 61
-0.423194 0.174784 3.7718 56 8 29
-0.434469 0.176658 3.8166 54 28 40
-0.438618 0.177084 3.8305 36 13 22
-0.396997 0.164347 3.64757 124 92 102
-0.422845 0.172624 3.75535 56 8 30
-0.398095 0.173001 3.64701 130 100 105
-0.515401 0.167109 4.15066 206 196 180
-0.423323 0.171561 3.75053 104 69 85
-0.391558 0.164176 3.61294 128 96 102
-0.387135 0.171673 3.59145 103 52 76
-0.387225 0.17174 3.59142 103 52 76
-0.382991 0.172167 3.5709 102 48 74
-0.395928 0.172202 3.62647 56 18 32
-0.43979 0.17321 3.81632 98 65 80
-0.401187 0.170739 3.64259 61 10 30
-0.40089 0.182904 3.63239 128 90 105
-0.401712 0.17101 3.63566 70 4 41
-0.442312 0.176939 3.81224 50 1 24
-0.405357 0.169383 3.64071 122 88 100
-0.438823 0.168595 3.78506 96 69 78
-0.438823 0.168802 3.78501 96 69 78
-0.434643 0.166159 3.7507 96 62 78
-0.442924 0.167178 3.7841 86 59 68
-0.40985 0.164044 3.63177 70 7 36
-0.440214 0.16164 3.76413 88 50 69
-0.408666 0.16286 3.62027 88 56 64
-0.453957 0.159087 3.81868 56 2 28
-0.454162 0.161427 3.81943 56 2 28
-0.451049 0.166308 3.80364 85 44 66
-0.423771 0.161392 3.67947 96 52 72
-0.453956 0.162325 3.80949 46 4 24
-0.453946 0.161206 3.80933 46 4 24
-0.450956 0.162172 3.79485 83 53 66
-0.456016 0.158886 3.80368 87 52 68
-0.45197 0.157161 3.78217 84 56 72
-0.481749 0.168326 3.91175 78 90 64
-0.480438 0.159425 3.90987 78 90 64
-0.420493 0.161064 3.63157 70 8 38
-0.442985 0.155117 3.72218 82 42 63
-0.456531 0.151982 3.78267 86 60 77
-0.460994 0.163705 3.79666 78 51 66
-0.460994 0.163705 3.79666 78 51 66
-0.420576 0.152238 3.61272 118 85 97
-0.496553 0.153203 3.95561 63 74 58
-0.468042 0.167427 3.82368 50 14 33
-0.442569 0.150802 3.69999 90 50 66
-0.442569 0.150802 3.69999 90 50 66
-0.463684 0.154782 3.78443 82 60 72
-0.462903 0.148806 3.77801 40 16 28
-0.436645 0.144827 3.64501 107 74 88
-0.439604 0.15181 3.64963 57 16 37
-0.439604 0.15181 3.64963 57 16 37
-0.499121 0.156237 3.91093 101 90 73
-0.496054 0.146592 3.89607 84 80 60
-0.505363 0.150263 3.93202 88 78 68
-0.43637 0.142562 3.61545 62 24 40
-0.475599 0.138918 3.78316 94 70 78
-0.502027 0.13157 3.89373 112 103 82
-0.48024 0.12393 3.78041 97 74 83
-0.508295 0.126874 3.90679 120 98 78
-0.473792 0.126735 3.74762 99 74 85
-0.515137 0.160252 3.93364 82 80 64
-0.515137 0.160252 3.93364 82 80 64
-0.506254 0.120997 3.88984 96 84 79
-0.452937 0.124594 3.63559 108 87 92
-0.533996 0.150018 4.01114 130 115 115
-0.512432 0.153554 3.90339 70 37 48
-0.27433 0.146918 3.97543 28 52 56
-0.225198 0.125231 3.67474 103 76 73
-0.282787 0.166975 3.84131 24 54 47
-0.323638 0.193688 3.944 5 39 48
-0.341064 0.0135891 4.11487 181 158 151
-0.299574 0.181343 3.84998 154 162 160
-0.293023 0.177967 3.81283 104 56 71
-0.337561 0.192693 3.97016 164 168 168
-0.295754 0.1724 3.7895 163 136 139
-0.26985 0.160926 3.64718 50 30 20
-0.266312 0.167548 3.61034 170 168 166
-0.408126 0.0824109 4.17841 142 58 66
-0.337738 0.187938 3.84029 113 60 71
-0.339083 0.19231 3.83387 172 140 147
-0.34294 0.196855 3.83695 164 91 108
-0.341825 0.193233 3.81883 86 7 49
-0.335381 0.188318 3.79073 69 104 80
-0.346723 0.196601 3.81015 54 90 72
-0.346863 0.199116 3.79411 54 104 76
-0.364023 0.192343 3.85279 158 78 100
-0.314142 0.178871 3.6426 130 90 92
-0.395069 0.202219 3.9656 65 2 32
-0.366687 0.193523 3.85348 78 8 24
-0.359391 0.194588 3.8146 76 108 80
-0.359288 0.194014 3.81446 76 108 80
-0.369477 0.196171 3.84898 69 2 18
-0.373233 0.196712 3.85642 62 4 18
-0.353168 0.192974 3.77403 95 122 88
-0.353002 0.192663 3.77373 95 122 88
-0.408803 0.20966 3.989 66 46 60
-0.315733 0.177697 3.62755 86 61 58
-0.354904 0.191269 3.76925 10 50 38
-0.37335 0.198474 3.85759 129 44 68
-0.359928 0.193666 3.78688 6 37 12
-0.376961 0.195958 3.84893 124 36 64
-0.368331 0.193497 3.79068 91 118 90
-0.364037 0.192256 3.77133 111 126 98
-0.41282 0.200874 3.95763 56 3 24
-0.372425 0.192905 3.78942 48 85 57
-0.416338 0.202731 3.95553 44 14 22
-0.385671 0.193198 3.81891 0 24 6
-0.420242 0.203142 3.95488 4 6 6
-0.421296 0.198603 3.96197 95 100 106
-0.387955 0.192353 3.80873 4 16 8
-0.381491 0.189982 3.77126 0 36 16
-0.382896 0.19062 3.77316 40 79 60
-0.382592 0.18786 3.76862 5 37 14
-0.438327 0.202479 3.95804 27 2 12
-0.43636 0.192985 3.94718 14 13 0
-0.437287 0.197485 3.94842 14 13 0
-0.41067 0.190049 3.83236 128 60 78
-0.408705 0.188 3.81821 78 38 48
-0.439226 0.19197 3.94089 21 6 14
-0.447246 0.197701 3.94208 64 52 62
-0.418929 0.179468 3.77609 120 66 89
-0.410508 0.177682 3.73401 112 64 86
-0.416501 0.179116 3.75813 67 12 36
-0.416058 0.183587 3.74918 60 14 32
-0.412011 0.176869 3.73151 60 14 35
-0.400714 0.175885 3.6776 116 65 89
-0.417695 0.176223 3.75087 131 89 107
-0.42024 0.191632 3.75322 59 10 32
-0.404337 0.176366 3.68804 66 12 36
-0.395943 0.172548 3.65216 64 4 34
-0.402639 0.17527 3.67934 65 14 38
-0.41626 0.174318 3.73514 56 12 32
-0.419571 0.17666 3.74897 57 13 32
-0.400257 0.173799 3.66619 65 12 33
-0.423255 0.177742 3.7671 96 54 73
-0.404069 0.172837 3.68073 110 60 81
-0.404839 0.174529 3.68313 111 66 86
-0.410365 0.173566 3.70452 58 9 31
-0.436083 0.176126 3.81372 44 2 22
-0.404556 0.168913 3.67736 66 10 35
-0.419918 0.173822 3.74288 63 13 38
-0.396509 0.172812 3.64116 135 92 109
-0.427316 0.17467 3.77297 58 8 29
-0.404663 0.172801 3.67136 59 12 32
-0.432002 0.17497 3.78798 108 66 87
-0.43216 0.173708 3.78604 109 76 92
-0.422232 0.179669 3.74085 92 58 75
-0.40964 0.174104 3.68669 66 10 34
-0.414265 0.17395 3.70405 108 66 80
-0.441775 0.164605 3.82963 113 77 95
-0.444195 0.176558 3.83299 113 77 95
-0.41319 0.167387 3.6982 64 8 34
-0.394597 0.169732 3.61944 139 96 114
-0.412273 0.171827 3.69267 112 60 82
-0.416234 0.173735 3.70834 62 10 31
-0.38384 0.165566 3.56936 64 15 37
-0.414294 0.171965 3.69749 110 60 84
-0.414076 0.170927 3.69695 110 60 84
-0.414076 0.170927 3.69695 110 60 84
-0.420589 0.170987 3.72516 97 63 78
-0.4205 0.171034 3.72507 97 63 78
-0.445563 0.175966 3.83073 34 1 12
-0.420573 0.169477 3.72008 58 12 34
-0.39314 0.167593 3.59902 96 50 71
-0.431441 0.171487 3.76602 94 58 76
-0.438723 0.172498 3.79712 86 49 67
-0.43827 0.170423 3.79645 86 49 67
-0.425161 0.15965 3.73674 50 8 28
-0.434736 0.17163 3.77694 95 54 78
-0.40876 0.195438 3.64056 56 8 30
-0.446547 0.17265 3.82749 118 79 94
-0.40077 0.177469 3.62539 73 38 48
-0.417619 0.170624 3.69848 68 13 38
-0.405467 0.168585 3.64406 132 105 109
-0.429909 0.169096 3.7503 92 56 71
-0.444156 0.169207 3.81115 46 0 22
-0.436653 0.170431 3.77507 44 5 24
-0.415229 0.168461 3.68115 92 48 65
-0.439232 0.171758 3.7838 107 75 88
-0.407576 0.167952 3.64159 62 29 38
-0.438775 0.170258 3.7768 96 54 77
-0.441482 0.168655 3.78785 42 2 24
-0.429688 0.167742 3.73818 101 57 77
-0.449902 0.171252 3.82297 60 0 28
-0.442278 0.166144 3.78917 60 10 38
-0.403417 0.165305 3.61739 55 16 31
-0.408688 0.16631 3.63854 115 70 89
-0.447662 0.167275 3.81031 49 1 25
-0.410461 0.165871 3.6441 134 94 110
-0.526021 0.131448 4.14642 168 158 150
-0.452762 0.171661 3.82716 115 77 93
-0.428532 0.165197 3.7152 86 52 70
-0.409247 0.161365 3.62518 56 14 30
-0.44244 0.163928 3.76576 96 58 78
-0.400521 0.160929 3.57776 105 58 80
-0.440888 0.164643 3.75013 100 70 85
-0.442927 0.155701 3.75119 44 12 28
-0.455682 0.157992 3.80337 89 49 68
-0.457785 0.163472 3.80817 102 60 80
-0.459827 0.164266 3.81135 50 9 28
-0.406684 0.155415 3.57639 100 52 73
-0.435148 0.158657 3.7014 92 50 68
-0.452271 0.155431 3.77725 43 9 30
-0.411157 0.156065 3.58776 104 56 78
-0.462595 0.159382 3.80986 48 12 30
-0.465603 0.159562 3.81749 86 52 70
-0.447273 0.151617 3.73486 95 63 80
-0.463121 0.156986 3.80367 99 74 86
-0.465683 0.15106 3.81289 74 49 60
-0.458586 0.155051 3.7781 49 18 36
-0.458586 0.155051 3.7781 49 18 36
-0.467168 0.146884 3.80733 44 12 28
-0.425803 0.148068 3.61945 132 91 108
-0.433845 0.149936 3.64536 125 88 100
-0.431682 0.147085 3.6367 125 84 100
-0.457317 0.146432 3.75117 52 21 37
-0.435052 0.146766 3.64203 62 32 36
-0.435052 0.146766 3.64203 62 32 36
-0.435889 0.143908 3.63607 122 82 96
-0.450365 0.142381 3.69878 82 58 72
-0.504914 0.140419 3.9447 91 74 70
-0.468505 0.132416 3.77453 56 22 38
-0.501128 0.158203 3.91749 88 75 70
-0.473371 0.141506 3.79288 88 59 70
-0.440625 0.144 3.64184 124 97 108
-0.463935 0.143503 3.74649 102 78 90
-0.466216 0.141735 3.7517 47 22 36
-0.466438 0.140209 3.74782 95 74 86
-0.464041 0.137937 3.73474 84 60 72
-0.479649 0.143022 3.80486 96 66 78
-0.444636 0.137703 3.64701 47 20 36
-0.475796 0.132619 3.78619 59 28 43
-0.431828 0.136035 3.58553 106 62 84
-0.474504 0.132973 3.77121 96 66 79
-0.482242 0.136581 3.8047 100 64 82
-0.470444 0.132095 3.75043 57 28 44
-0.447258 0.135025 3.64542 114 92 101
-0.445744 0.133212 3.63513 126 99 112
-0.515735 0.145941 3.94566 95 74 84
-0.437476 0.131521 3.59507 102 64 83
-0.437476 0.131521 3.59507 102 64 83
-0.447629 0.13203 3.63722 62 39 52
-0.447629 0.13203 3.63722 62 39 52
-0.457654 0.187604 3.68073 92 60 80
-0.451334 0.130825 3.64605 116 90 102
-0.450678 0.123367 3.63905 79 59 66
-0.437682 0.129444 3.56679 88 58 72
-0.445506 0.108793 3.56424 88 55 74
-0.337682 0.192379 3.96933 145 148 147
-0.339359 0.193267 3.8582 120 52 68
-0.302556 0.184833 3.70975 160 130 110
-0.342605 0.195247 3.85394 71 19 28
-0.293056 0.185685 3.64945 128 108 102
-0.316728 0.185142 3.71311 153 143 136
-0.327075 0.191426 3.75441 152 126 133
-0.303459 0.0139874 4.11564 202 193 180
-0.266441 0.158164 3.85999 40 60 56
-0.254172 0.0557509 3.81873 38 48 43
-0.383618 -0.0267892 4.30291 193 144 151
-0.385335 -0.0198989 4.30176 184 138 144
-0.402647 -0.0287945 4.36404 195 149 150
-0.337231 0.0209811 4.08802 117 64 66
-0.342021 0.0272117 4.08929 182 144 142
-0.362424 0.12388 4.08328 155 130 107
-0.405302 -0.0334126 4.36197 198 150 154
-0.400555 0.00485563 4.28848 220 130 150
-0.260806 0.158766 3.66079 130 84 78
-0.398741 0.0131294 4.26844 149 14 58
-0.364561 0.0564853 4.08674 108 36 40
-0.285171 0.163347 3.70016 138 78 34
-0.339864 0.192856 3.82596 168 152 154
-0.312677 0.187584 3.71799 172 161 147
-0.347196 0.195799 3.85115 166 124 136
-0.345714 0.194074 3.83672 90 27 40
-0.347053 0.193653 3.83864 63 0 10
-0.333403 0.192626 3.78275 2 21 2
-0.335917 0.191242 3.79125 66 106 77
-0.315597 0.185327 3.70762 104 76 69
-0.345367 0.194503 3.81022 57 88 71
-0.398676 0.208818 3.99388 74 1 38
-0.364874 0.19608 3.85331 158 80 103
-0.365744 0.196396 3.8438 62 1 8
-0.401293 0.207443 3.98145 128 110 120
-0.367447 0.194795 3.84693 87 7 28
-0.369511 0.196419 3.85416 150 77 96
-0.316282 0.180444 3.64615 132 92 93
-0.340412 0.186048 3.7304 154 134 136
-0.345463 0.18589 3.71844 143 123 124
-0.365997 0.191744 3.78387 53 94 68
-0.441408 0.201388 4.08234 12 8 2
-0.341302 0.184308 3.67347 124 98 104
-0.364482 0.192325 3.75625 24 24 16
-0.418206 0.207087 3.96317 94 97 91
-0.42163 0.200517 3.96337 92 96 100
-0.386251 0.193775 3.81232 38 68 55
-0.429133 0.203728 3.95831 4 11 8
-0.390943 0.192593 3.80183 53 55 47
-0.442267 0.203101 3.96825 38 66 46
-0.442264 0.204529 3.96822 38 66 46
-0.434153 0.181988 3.83879 33 2 18
-0.412869 0.178751 3.74713 124 72 94
-0.419119 0.177841 3.77324 50 0 19
-0.416564 0.179643 3.75828 54 2 20
-0.42267 0.180093 3.7831 50 1 20
-0.406729 0.177505 3.71219 120 68 90
-0.419029 0.178182 3.75736 59 4 27
-0.425276 0.209757 3.76368 59 4 27
-0.408086 0.176554 3.70968 66 14 37
-0.4151 0.175719 3.73794 106 65 82
-0.398502 0.175268 3.6649 120 68 92
-0.400198 0.17432 3.66652 60 8 29
-0.403975 0.173956 3.66911 100 56 74
-0.423561 0.177616 3.75229 110 74 88
-0.392233 0.172782 3.61674 140 110 114
-0.416723 0.173136 3.71931 106 57 78
-0.422066 0.178195 3.74042 88 53 68
-0.401614 0.171604 3.64728 133 92 104
-0.384201 0.168727 3.57091 60 12 34
-0.384201 0.168727 3.57091 60 12 34
-0.421513 0.171609 3.7297 59 12 32
-0.390626 0.172953 3.597 70 16 40
-0.402138 0.166664 3.64349 56 20 30
-0.411054 0.170346 3.66959 111 62 84
-0.412167 0.168393 3.66981 110 57 80
-0.394835 0.169535 3.59169 101 55 74
-0.396474 0.166752 3.58469 68 12 39
-0.440789 0.165454 3.77901 51 6 28
-0.427392 0.166462 3.71159 48 8 27
-0.482541 0.177575 3.94821 74 46 50
-0.401882 0.162448 3.59842 96 48 71
-0.425243 0.164574 3.69512 104 58 76
-0.41468 0.162499 3.64738 122 82 95
-0.442617 0.1656 3.76621 89 52 73
-0.399512 0.159464 3.57238 64 12 35
-0.440038 0.16495 3.74629 46 14 28
-0.412351 0.159847 3.6168 58 17 34
-0.445871 0.225078 3.77107 80 41 59
-0.463109 0.158997 3.8267 44 8 24
-0.409576 0.155781 3.58698 112 63 84
-0.411027 0.155617 3.58775 102 54 74
-0.407312 0.156425 3.56779 98 54 72
-0.415863 0.164179 3.59664 66 19 38
-0.459227 0.153724 3.78143 30 4 19
-0.453512 0.156689 3.75421 46 13 30
-0.425103 0.148365 3.62296 60 9 32
-0.424735 0.148679 3.61223 128 96 108
-0.431687 0.147315 3.63679 124 82 99
-0.473529 0.144839 3.80276 91 59 76
-0.473052 0.136833 3.79173 86 57 70
-0.460606 0.0481006 3.76826 95 64 80
-0.473467 0.126031 3.75095 57 30 42
-0.518299 0.125266 3.93819 90 85 78
-0.544541 0.0997092 4.05693 66 54 34
-0.265075 0.129725 3.97929 172 174 168
-0.249523 0.129329 3.85194 107 123 124
-0.249523 0.129329 3.85194 107 123 124
-0.289393 0.156635 3.97651 165 167 161
-0.200728 0.113325 3.63387 132 133 126
-0.205605 0.124114 3.63292 126 128 121
-0.227203 0.134878 3.69004 84 63 58
-0.20654 0.106635 3.61776 130 134 128
-0.232639 0.153301 3.68316 90 62 61
-0.38196 0.0865754 4.10597 125 26 49
-0.443005 0.0324314 4.34996 194 144 150
-0.425983 0.0583642 4.26243 203 134 148
-0.447092 0.033631 4.35463 133 10 44
-0.441468 0.048497 4.3169 188 162 160
-0.453041 0.041162 4.35372 202 134 141
-0.453041 0.041162 4.35372 202 134 141
-0.431472 0.0839056 4.24549 150 97 78
-0.458022 0.0582203 4.35306 117 38 48
-0.444208 0.0661228 4.29218 167 128 94
-0.319076 0.22791 3.65878 74 18 44
-0.363078 0.203016 3.77725 2 34 22
-0.429056 0.195536 3.9669 40 15 30
-0.427627 0.17478 3.81307 42 4 20
-0.410385 0.0438124 3.67364 92 52 70
-0.440459 0.158681 3.76789 52 10 29
-0.427884 0.153872 3.69914 89 50 67
-0.431279 0.156968 3.69187 98 56 71
-0.419579 0.151528 3.62778 72 14 42
-0.464824 0.153631 3.82498 93 72 77
-0.454618 0.148681 3.77101 82 50 68
-0.431079 0.169558 3.64949 62 12 32
-0.449678 0.134302 3.6963 86 60 75
-0.473447 0.142727 3.80229 94 66 78
-0.473772 0.12232 3.76843 96 68 80
-0.477915 0.148776 3.62757 140 130 114
-0.234148 0.115344 3.79363 181 148 146
-0.259079 0.150172 3.85806 144 167 170
-0.263751 0.154007 3.86241 167 176 168
-0.314789 -0.00338452 4.09236 49 32 8
-0.282168 0.17409 3.84102 148 162 156
-0.332951 0.0131937 4.11786 174 70 93
-0.363125 0.0628657 4.09372 163 150 136
-0.433424 0.000224172 4.37794 158 26 64
-0.336497 0.192181 3.85451 170 132 136
-0.448864 0.0410061 4.33927 136 56 68
-0.352402 0.196661 3.77731 10 44 14
-0.376965 0.198011 3.85659 126 41 62
-0.334922 0.19056 3.68372 152 139 128
-0.374381 0.197804 3.83788 85 36 46
-0.42493 0.179336 3.79837 85 50 66
-0.412605 0.178888 3.73642 53 4 24
-0.406027 0.174849 3.68436 100 54 74
-0.427213 0.172342 3.7693 90 39 60
-0.402407 0.161473 3.65171 61 2 29
-0.430536 0.172279 3.76642 96 58 76
-0.430001 0.166894 3.74974 100 66 78
-0.40889 0.168112 3.65498 78 6 42
-0.426926 0.162692 3.7059 59 13 34
-0.407897 0.164504 3.61533 69 28 40
-0.413791 0.161171 3.62391 66 30 39
-0.444713 0.155911 3.74443 51 19 33
-0.466495 0.146634 3.81027 102 74 85
-0.474187 0.138386 3.82664 110 82 88
-0.478243 0.128971 3.81986 120 96 98
-0.270962 0.172389 3.65389 116 76 67
-0.329266 0.190419 3.78988 149 148 141
-0.313599 0.186748 3.71581 116 107 94
-0.340222 0.192877 3.80383 68 10 40
-0.0219529 -0.664332 4.19659 205 196 181
-0.259488 0.090856 4.09104 51 46 31
-0.290853 -0.0280906 4.04324 62 2 44
-0.264217 0.161405 3.68899 150 108 104
-0.309153 -0.00205708 4.06736 54 29 16
-0.322539 0.011322 4.0849 150 133 123
-0.335855 0.0315479 4.07447 115 42 57
-0.342793 0.0327062 4.09224 115 52 60
-0.342326 0.0298468 4.09239 115 52 60
-0.344502 0.0477998 4.07016 126 12 44
-0.283284 0.169245 3.6366 30 21 15
-0.364019 0.064791 4.09003 162 148 135
-0.386721 0.0256076 4.2252 178 160 153
-0.416031 -0.0259566 4.40582 205 148 153
-0.414729 -0.0359819 4.40756 205 148 153
-0.40668 -0.021607 4.35041 208 156 162
-0.420308 -0.0262586 4.41822 174 110 113
-0.376069 0.081851 4.09289 192 146 148
-0.421878 -0.0239345 4.41343 120 6 36
-0.383524 0.0888002 4.10305 130 34 56
-0.385459 0.0813669 4.11949 152 25 62
-0.388018 0.0964062 4.10279 180 132 117
-0.435215 -0.018395 4.42673 143 92 87
-0.322416 0.180999 3.64936 119 84 84
-0.458131 0.00526584 4.43241 216 195 181
-0.411165 0.199303 3.92385 110 110 101
-0.422953 0.203883 3.9704 0 10 10
-0.431256 0.193613 3.95473 102 96 94
-0.427366 0.180587 3.81955 81 48 64
-0.42746 0.178504 3.8028 49 4 25
-0.42746 0.178504 3.8028 49 4 25
-0.439742 0.171956 3.80557 76 35 54
-0.448867 0.1686 3.82888 50 3 24
-0.447275 0.181049 3.8002 95 55 76
-0.443911 0.165638 3.79438 95 55 76
-0.449919 0.160266 3.81301 84 45 66
-0.450617 0.161083 3.79444 84 46 62
-0.451743 0.157085 3.78243 86 59 75
-0.446716 0.157669 3.7493 92 62 76
-0.45228 0.157982 3.77248 92 56 76
-0.463802 0.154131 3.83203 108 68 90
-0.464781 0.153944 3.82047 51 11 30
-0.466887 0.12865 3.74511 99 72 86
-0.525166 0.0890993 4.1081 185 171 161
-0.528684 0.0927639 4.1284 185 180 170
-0.525294 0.0855652 4.10307 52 41 32
-0.472717 0.126715 3.74697 104 77 92
-0.53192 0.0855043 4.11158 58 42 28
-0.47916 0.116402 3.76943 95 65 80
-0.545229 0.118195 4.12214 204 199 190
-0.257436 0.142249 3.8598 55 72 64
-0.292127 0.0940934 4.06254 84 2 49
-0.345972 0.197663 3.96548 0 34 38
-0.285129 0.175643 3.6388 28 20 14
-0.386574 0.111613 4.0972 148 65 79
-0.416016 0.0100458 4.31712 210 136 148
-0.321229 0.189906 3.62928 126 110 104
-0.398053 0.16868 3.61792 58 14 28
-0.533002 0.122045 4.12824 188 176 172
-0.472342 0.116722 3.74429 96 74 86
-0.183792 0.101196 3.74402 188 182 162
-0.247696 0.0671754 4.07889 200 190 174
-0.230524 0.0144223 3.94539 157 169 165
-0.255387 0.126995 3.95276 36 60 60
-0.258746 0.133665 3.95816 36 59 62
-0.176063 0.0476475 3.62982 178 170 156
-0.255802 0.132062 3.92516 115 127 118
-0.255802 0.132062 3.92516 115 127 118
-0.240679 0.128348 3.8535 69 82 80
-0.259816 0.145617 3.91378 82 88 82
-0.248334 0.138679 3.86146 164 174 170
-0.207547 0.0929795 3.68671 66 59 58
-0.222684 0.132286 3.68764 170 156 156
-0.335856 0.0335979 4.08412 192 112 128
-0.34386 0.201551 3.97054 8 30 28
-0.385218 0.00328057 4.28116 116 6 38
-0.403592 -0.0332388 4.36038 93 13 29
-0.399987 -0.00402951 4.31073 179 164 154
-0.376538 0.0914338 4.08381 128 25 54
-0.378164 0.0900246 4.08085 192 130 138
-0.408282 0.0435162 4.25287 130 54 66
-0.431246 -0.0279645 4.41346 132 18 48
-0.438015 -0.000882055 4.41145 202 146 152
-0.422594 0.0344335 4.29435 132 22 51
-0.439844 -0.00905875 4.40385 126 21 46
-0.389663 0.190326 3.98193 78 0 37
-0.440746 -0.00298969 4.38403 201 158 163
-0.443208 -0.00262191 4.39673 190 118 136
-0.437927 0.0225694 4.34573 178 162 155
-0.444044 0.00129274 4.38987 216 136 156
-0.458353 -0.00302363 4.42752 148 92 89
-0.411574 0.191764 3.98933 4 14 12
-0.471442 0.0140269 4.43124 138 118 106
-0.475771 0.0313126 4.42063 138 56 64
-0.491346 0.0418021 4.43424 136 107 76
-0.85853 -0.0780765 3.92268 136 126 112
-0.85853 -0.0780765 3.92268 136 126 112
-0.941086 -0.0304273 3.89371 101 90 77
-0.238957 0.120658 3.87293 176 171 164
-0.266796 0.152085 3.91304 80 82 77
-0.448762 -0.0196608 4.43466 204 190 174
-0.434065 0.180365 3.82408 42 0 24
-0.523139 0.211178 4.13732 49 36 22
-0.475123 0.140138 3.82978 58 24 34
-0.52191 0.110246 4.11417 98 78 66
-0.2003 0.116679 4.0727 104 28 23
-0.2003 0.116679 4.0727 104 28 23
-0.38428 0.0168318 4.41188 172 126 111
-0.41542 -0.0214512 4.40663 196 148 150
-0.394744 -0.042009 4.30466 176 136 121
-0.41515 -0.0212834 4.37647 199 135 147
-0.330605 0.0367897 4.22417 166 119 102
-0.434535 -0.021222 4.42311 122 59 56
-0.141545 0.262844 4.10053 168 120 110
-0.42884 -0.00968441 4.42526 202 168 156
-0.327292 0.0476288 4.20312 84 27 32
-0.43937 -0.165809 4.13994 135 46 60
-0.350777 -0.0501578 4.09368 165 135 118
-0.12879 0.300245 4.10969 180 92 92
-0.12879 0.300245 4.10969 180 92 92
-0.365729 -0.00737036 4.19646 182 130 132
-0.41836 0.022184 4.41362 158 66 81
-0.367053 -0.00311624 4.19863 84 20 26
-0.323552 0.0588652 4.18666 168 136 134
-0.4432 -0.193127 4.08478 145 60 76
-0.18839 0.100414 3.89762 18 25 19
-0.424529 0.0266 4.42045 128 94 81
-0.439212 -0.00125564 4.42297 128 94 81
-0.306561 0.0815513 4.14302 180 109 122
-0.356925 -0.00882901 4.12658 180 109 122
-0.440649 0.0034334 4.4244 204 175 160
-0.260759 0.0435004 3.99416 137 130 118
-0.285355 0.0240912 4.0314 43 11 2
-0.366415 -0.0215126 4.12747 101 2 23
-0.387385 0.0125338 4.25477 190 146 148
-0.380773 0.0314251 4.26703 120 97 91
-0.210929 0.0782705 3.86751 17 40 39
-0.354957 0.00037368 4.11755 176 125 132
-0.424859 0.00592674 4.35047 90 2 13
-0.371507 0.0300967 4.22995 92 28 36
-0.375307 0.0244702 4.22365 91 12 24
-0.300152 0.0863287 4.10781 84 9 20
-0.3616 0.0536733 4.22541 134 28 50
-0.371702 0.0432421 4.23933 80 10 22
-0.374305 0.0471614 4.23223 192 146 148
-0.421819 0.0153937 4.32514 195 143 145
-0.372291 0.0519909 4.23494 86 25 31
-0.208683 0.103205 3.8841 13 25 14
-0.206102 0.106059 3.87976 144 142 135
-0.419272 0.0365618 4.34646 126 21 42
-0.448837 -0.00860312 4.34825 126 21 42
-0.266627 0.0519592 3.96945 138 132 123
-0.415763 0.0215311 4.29143 196 132 142
-0.22849 0.0017846 3.71308 69 6 31
-0.410424 -0.00330474 4.2225 89 16 30
-0.440419 0.017572 4.34644 95 29 36
-0.373293 0.0578657 4.21198 107 33 44
-0.440304 0.0181009 4.33331 206 159 160
-0.436137 0.0236933 4.3298 206 159 160
-0.4006 0.0459744 4.26081 142 122 115
-0.375497 0.0642776 4.21069 92 24 36
-0.426614 0.0336372 4.30601 104 8 28
-0.227786 0.112238 3.90476 12 32 31
-0.411135 0.0426242 4.26773 95 6 24
-0.410683 0.0371746 4.2522 98 4 22
-0.258174 0.0697679 3.92161 40 50 41
-0.153631 0.16693 3.76446 58 36 34
-0.458527 0.0355466 4.39812 182 161 151
-0.441165 0.0255076 4.32246 94 3 22
-0.420653 0.033228 4.27035 156 51 72
-0.242647 0.0909049 3.89734 138 145 133
-0.421712 0.0395456 4.28267 145 116 112
-0.442372 0.0402199 4.34678 186 126 134
-0.42209 0.0420099 4.2884 91 4 18
-0.419878 0.0781397 4.34291 104 43 52
-0.262742 0.0813211 3.92163 145 154 146
-0.459707 0.0235532 4.35106 102 6 24
-0.430544 0.0434204 4.29858 102 0 21
-0.169457 0.160963 3.77751 122 118 108
-0.230867 0.133526 3.92055 149 145 134
-0.422962 0.0459097 4.27727 107 28 48
-0.262353 0.085976 3.91409 151 149 140
-0.400859 0.057184 4.23088 80 22 26
-0.4445 0.0411431 4.32714 112 36 49
-0.415336 -0.00271428 4.14112 144 36 62
-0.421378 0.0681937 4.30263 110 6 30
-0.422373 0.0564032 4.2776 108 12 32
-0.430152 -0.044104 4.09253 152 134 124
-0.215832 0.106344 3.77638 156 118 126
-0.427502 0.04061 4.25689 101 9 30
-0.26872 0.0874605 3.91168 50 54 48
-0.371116 -0.103873 3.81722 32 40 28
-0.248953 0.101421 3.89228 32 40 28
-0.469864 0.00133489 4.28961 84 0 16
-0.431249 0.0663195 4.30452 95 29 36
-0.214859 0.153423 3.8736 120 121 112
-0.235557 0.157494 3.94656 44 44 36
-0.457252 0.0540978 4.35481 128 112 100
-0.487036 -0.00799614 4.30326 94 20 32
-0.431109 0.0359133 4.21808 146 40 63
-0.45705 0.0527393 4.34016 198 146 151
-0.240819 0.116613 3.85908 150 138 126
-0.424195 0.109888 4.34339 79 1 9
-0.419757 0.0195118 4.1304 135 23 52
-0.491548 0.028252 4.36453 94 8 26
-0.382936 0.0790956 4.12241 125 15 42
-0.405126 0.0486091 4.10834 66 0 9
-0.459459 -0.0499164 4.06241 61 1 2
-0.173202 0.204834 3.73037 148 135 126
-0.193214 0.185571 3.75263 106 46 17
-0.190428 0.247008 3.89495 0 20 10
-0.280004 0.0197845 3.66016 160 128 112
-0.159371 0.338346 3.99102 142 148 140
-0.183817 0.204239 3.7278 28 8 8
-0.18166 0.213304 3.73224 68 40 44
-0.346372 -0.099992 3.55399 34 10 15
-0.328417 -0.0674465 3.57231 34 10 15
-0.272288 0.128942 3.85173 11 36 35
-0.23716 0.195201 3.88211 11 36 35
-0.215846 0.278855 3.99667 4 14 13
-0.272074 0.13948 3.85137 148 156 154
-0.271843 0.136044 3.84989 148 156 154
0.0718892 0.758862 4.21745 32 2 6
-0.271793 0.143903 3.85688 148 162 152
-0.233422 0.204303 3.8428 82 16 42
-0.755916 -0.37363 4.0422 5 6 3
-0.262125 0.186398 3.86369 5 35 34
-0.254274 0.197425 3.86901 5 35 34
-0.266959 0.180258 3.8504 112 132 131
-0.294463 0.160731 3.85065 20 32 20
-0.288545 0.186762 3.85818 15 25 16
-0.308583 0.154431 3.83585 14 40 34
-0.288994 0.182932 3.84902 14 40 34
-0.265478 0.210237 3.82198 85 48 57
-0.279809 0.202541 3.82518 77 40 44
-0.29754 0.187235 3.84181 2 14 4
-0.257237 0.25698 3.88581 8 16 9
0.224897 0.975242 4.20216 140 160 158
0.224897 0.975242 4.20216 140 160 158
-0.718622 -0.504428 3.33148 162 115 90
-0.785082 -0.590964 3.29041 160 130 110
-0.314878 0.179375 3.77902 52 14 29
-0.318746 0.154904 3.69814 100 72 63
-0.36164 0.162454 3.8433 78 36 38
-0.624103 -0.219437 3.67928 78 36 38
-0.39884 0.00409373 4.30951 168 152 146
-0.40054 0.0053574 4.28757 190 152 153
-0.405156 0.0198564 4.32354 120 1 34
-0.385121 0.0390403 4.26502 142 119 114
-0.419095 0.0179091 4.329 108 2 30
-0.374713 0.0494136 4.23703 113 24 42
-0.449552 0.00385179 4.3903 99 2 26
-0.42548 0.0283179 4.32117 188 142 144
-0.384243 0.026546 4.17879 168 132 128
-0.419525 0.0322629 4.2777 107 20 38
-0.408223 0.0279999 4.23597 154 33 64
-0.42037 0.0470138 4.23946 153 46 72
-0.232823 0.136858 3.88312 148 147 141
-0.444066 0.0571412 4.30213 184 140 144
-0.24991 0.12075 3.86387 152 163 156
-0.241148 0.156546 3.86882 154 149 148
-0.243175 0.163214 3.86792 23 42 42
-0.253623 0.166553 3.87098 147 154 146
-0.27202 0.141778 3.8559 152 166 158
-0.348361 0.093297 4.41428 180 100 108
-0.385764 0.029528 4.29788 112 26 46
-0.433914 0.00379766 4.39962 190 150 149
-0.368883 0.0277811 4.23627 122 99 94
-0.37241 0.0294951 4.22991 102 30 44
-0.376388 0.0343091 4.22878 119 103 96
-0.346021 0.065173 4.19255 183 148 144
-0.446304 0.0125269 4.39179 192 145 146
-0.395249 0.0200104 4.2407 86 20 32
-0.418702 0.0316334 4.32857 155 38 76
-0.477471 -0.00656192 4.41414 176 93 103
-0.255953 0.275261 4.27957 156 41 74
-0.418983 0.0368177 4.3073 104 4 32
-0.377646 0.0626704 4.2149 130 12 45
-0.434327 0.0209365 4.29172 141 32 58
-0.434327 0.0209365 4.29172 141 32 58
-0.469539 0.00283529 4.35797 158 47 78
-0.394227 0.0229884 4.15029 97 0 18
-0.534073 -0.04868 4.41617 176 98 112
-0.332627 0.106893 4.09789 92 44 46
-0.408582 0.0616087 4.23924 106 4 30
-0.444051 0.0530166 4.31575 160 134 127
-0.35956 0.104609 4.11659 96 1 24
-0.363343 0.105514 4.11764 165 76 95
-0.391748 0.0601731 4.08832 76 0 12
-0.438984 0.007239 4.05241 144 107 70
-0.420083 0.0152629 4.34285 118 3 29
-0.403852 0.0357 4.28256 210 139 150
-0.284715 0.0716492 4.11405 87 13 22
-0.398641 0.0331327 4.28748 132 20 48
-0.375859 0.0530665 4.22276 208 140 150
-0.334565 0.0564902 4.0896 94 7 19
-0.283547 0.0928281 3.91271 146 157 149
-0.283547 0.0928281 3.91271 146 157 149
-0.289103 0.104634 3.90034 164 158 148
-0.296167 0.0994996 3.91253 168 168 160
-0.380903 0.104886 4.13381 178 134 118
-0.296043 0.121857 3.87353 18 46 38
-0.435725 -0.0360024 4.41012 124 14 40
-0.437035 -0.010542 4.42571 178 136 126
-0.417834 0.0369825 4.41494 166 85 92
-0.448913 -0.144236 4.05562 168 132 126
-0.436399 -0.0741749 4.0607 182 136 138
-0.417261 0.0760303 4.29839 161 46 77
-0.437915 -0.0640332 4.06019 104 20 38
-0.250076 0.317917 3.99752 0 14 20
-0.384313 0.204852 4.01653 129 126 118
-0.352157 0.195051 3.83502 122 40 72
-0.355923 0.192569 3.79436 93 112 71
-0.398811 0.204395 3.98265 58 0 22
-0.361062 0.193393 3.79824 80 102 76
-0.457542 0.0577853 4.34961 138 36 58
-0.244791 0.0974403 3.94904 70 78 76
-0.243094 0.101112 3.92069 128 130 121
-0.264892 0.126162 3.96038 172 184 181
-0.20983 0.0983922 3.68602 102 91 82
-0.211954 0.0992377 3.67657 176 160 154
-0.216929 0.107275 3.67569 92 72 68
-0.262146 0.13906 3.83673 160 170 162
-0.204705 0.0985784 3.61129 132 130 128
-0.291886 0.160456 3.84824 22 48 44
-0.302484 0.180737 3.83919 149 164 162
-0.304129 0.169626 3.84266 160 177 168
-0.304129 0.169626 3.84266 160 177 168
-0.305887 0.175463 3.83929 169 172 172
-0.305887 0.175463 3.83929 169 172 172
-0.332945 0.179055 3.83561 177 144 146
-0.337982 0.18076 3.85602 172 147 146
-0.33487 0.178726 3.82622 179 144 147
-0.340908 0.191716 3.833 98 34 48
-0.336467 0.179731 3.82887 98 34 48
-0.334607 0.181372 3.79169 7 46 26
-0.344589 0.182921 3.83846 120 39 66
-0.347977 0.183325 3.83136 138 48 82
-0.330416 0.190341 3.71763 143 140 132
-0.349658 0.193287 3.78749 5 38 24
-0.411308 0.193564 4.10497 202 150 154
-0.382194 0.0989072 4.09019 141 46 65
-0.386396 0.0934164 4.11282 140 38 67
-0.386396 0.0934164 4.11282 140 38 67
-0.347105 0.191823 3.75304 87 96 82
-0.34556 0.187094 3.7502 77 98 78
-0.35031 0.18917 3.77018 14 50 18
-0.366694 0.18723 3.85241 152 78 96
-0.362612 0.184463 3.82684 60 72 62
-0.362612 0.184463 3.82684 60 72 62
-0.356671 0.193947 3.76506 48 85 65
-0.360064 0.192305 3.77367 3 44 28
-0.373697 0.186782 3.85421 132 42 68
-0.371862 0.194222 3.8131 54 86 70
-0.361284 0.185526 3.76676 22 55 24
-0.416157 0.00106426 4.3181 154 52 73
-0.375258 0.18627 3.81891 58 88 68
-0.430635 0.00487287 4.3695 154 39 71
-0.445006 0.0353757 4.36065 155 67 87
-0.445012 0.0773463 4.29962 146 51 70
-0.445786 0.0351719 4.36326 146 47 73
-0.381802 0.186899 3.77214 42 80 60
-0.408653 0.188246 3.81809 78 42 52
-0.293723 -0.204979 3.55048 110 57 81
-0.419864 0.180618 3.78118 113 60 82
-0.126984 -0.802024 3.33499 62 12 32
-0.420661 0.177691 3.78241 52 0 21
-0.419982 0.176948 3.77735 54 6 28
-0.408982 0.174297 3.7187 61 3 31
-0.45341 0.337078 3.76507 64 7 36
-0.393743 0.173784 3.62209 61 6 30
-0.407966 0.18008 3.68192 66 14 36
-0.401482 0.177804 3.64589 62 17 35
-0.404304 0.171351 3.66518 65 16 37
-0.4363 0.177644 3.83453 31 1 15
-0.431352 0.176 3.80674 40 3 14
-0.398733 0.168066 3.62027 60 19 31
-0.398733 0.168066 3.62027 60 19 31
-0.438596 0.175733 3.83113 42 12 25
-0.414863 0.179047 3.68894 68 9 35
-0.42529 0.172342 3.74258 54 6 29
-0.426356 0.172492 3.74772 52 10 30
-0.428195 0.172836 3.75554 53 6 27
-0.403452 0.165303 3.61724 59 19 32
-0.439385 0.172155 3.81611 102 66 82
-0.422799 0.172715 3.71316 60 14 33
-0.412506 0.17218 3.65007 128 86 103
-0.414067 0.169948 3.64973 54 6 28
-0.415218 0.170605 3.64102 128 80 96
-0.405257 0.163647 3.5899 100 49 72
-0.437874 0.164187 3.77236 95 50 72
-0.438048 0.16767 3.75408 54 8 30
-0.426082 0.155581 3.68976 104 61 78
-0.449843 0.165157 3.81054 44 0 19
-0.420694 0.158143 3.63759 126 91 100
-0.441144 0.164796 3.74139 49 13 34
-0.422113 0.159878 3.61022 128 85 99
-0.4606 0.161499 3.82807 51 2 24
-0.456342 0.158987 3.79891 48 8 27
-0.459801 0.15558 3.81612 47 3 26
-0.459801 0.15558 3.81612 47 3 26
-0.462494 0.160164 3.82452 125 81 100
-0.462494 0.160164 3.82452 125 81 100
-0.465295 0.160088 3.83351 120 78 102
-0.422301 0.151467 3.57817 100 56 76
-0.467134 0.155985 3.83206 40 0 22
-0.456242 0.149828 3.77092 74 46 63
-0.45854 0.156617 3.77505 85 55 73
-0.466431 0.160736 3.80673 42 10 26
-0.438727 0.152355 3.6479 139 98 116
-0.470587 0.156981 3.82775 75 50 59
-0.470587 0.156981 3.82775 75 50 59
-0.466238 0.151382 3.80643 93 58 77
-0.464072 0.150716 3.78537 34 6 23
-0.471069 0.162799 3.80849 41 8 26
-0.456716 0.143546 3.73423 74 46 60
-0.442957 0.147018 3.64061 50 26 38
-0.462971 0.146975 3.75203 51 22 38
-0.445081 0.145992 3.64365 110 88 98
-0.44655 0.148391 3.64219 51 24 39
-0.465947 0.138342 3.77032 90 64 79
-0.465947 0.138342 3.77032 90 64 79
-0.470725 0.148879 3.78368 42 12 31
-0.450069 0.134815 3.64825 47 22 34
-0.469909 0.134727 3.76936 100 70 87
-0.451078 0.134489 3.63762 122 94 108
-0.443982 0.12732 3.59611 90 58 76
-0.470749 0.133565 3.74637 50 19 35
-0.455624 0.137083 3.65049 50 22 40
-0.455624 0.137083 3.65049 50 22 40
-0.476978 0.130838 3.7791 110 82 94
-0.478166 0.133609 3.77673 55 23 37
-0.485995 0.134217 3.82294 124 98 106
-0.486955 0.133437 3.8249 52 29 40
-0.46027 0.121016 3.64598 108 72 90
-0.481332 0.121978 3.77041 110 78 94
-0.481332 0.121978 3.77041 110 78 94
-0.44692 0.112502 3.55622 16 1 16
-0.542563 0.162084 4.09796 145 134 124
-0.478217 0.112231 3.74293 114 80 92
-0.47924 0.112969 3.74642 110 70 86
-0.563752 0.165548 4.12876 158 150 146
-0.5749 0.218905 4.13057 179 168 164
-0.848548 0.121852 3.95835 138 126 114
-0.268502 0.142244 3.9604 46 64 61
-0.325313 0.188286 3.95583 168 168 168
-0.310612 0.195373 3.81564 108 79 85
-0.434442 0.195831 3.97852 43 11 28
-0.430133 0.158961 3.7572 52 8 28
-0.467305 0.149751 3.77903 50 20 34
-0.340518 0.1928 3.86248 164 147 144
-0.352227 0.0458122 4.07662 130 19 50
-0.345574 0.192633 3.81043 46 77 61
-0.417719 0.200918 3.97426 30 26 16
-0.417719 0.200918 3.97426 30 26 16
-0.402629 0.172768 3.65385 138 94 114
-0.408306 0.165213 3.66254 62 16 36
-0.416191 0.167565 3.68456 66 9 34
-0.440932 0.164472 3.82937 110 75 94
-0.51076 0.153256 4.10819 81 70 58
-0.312305 0.184849 3.73472 152 122 94
-0.227917 0.101543 3.87075 27 44 39
-0.362018 0.00331309 4.17817 163 148 140
-0.240862 0.120156 3.98918 11 38 42
-0.261699 0.0726798 3.90566 153 159 151
-0.38677 0.00880918 4.23901 175 154 148
-0.241113 0.126656 3.8574 136 152 151
-0.24035 0.13162 3.85552 6 35 34
-0.382717 0.0309215 4.19739 179 144 142
-0.250075 0.147591 3.96336 8 32 41
-0.397316 0.0221191 4.2406 202 140 147
-0.258529 0.135776 3.97093 144 140 135
-0.257007 0.144628 3.986 4 33 38
-0.244749 0.144062 3.86061 10 30 24
-0.253098 0.130209 3.8614 18 39 28
-0.245855 0.149608 3.85979 140 147 150
-0.253679 0.132723 3.8589 139 156 157
-0.409467 0.0336846 4.25036 150 43 70
-0.239186 0.128272 3.7032 160 114 92
-0.439938 0.0358257 4.33492 186 153 151
-0.257427 0.160598 3.86633 16 34 32
-0.260536 0.173511 3.9016 146 147 142
-0.267043 0.172305 3.89674 140 144 135
-0.38856 0.0752959 4.10165 98 0 26
-0.268814 0.172644 3.86184 7 42 43
-0.400233 0.0774819 4.15125 110 6 32
-0.279965 0.190605 3.96836 142 149 150
-0.28218 0.186252 3.84599 112 124 118
-0.484008 0.0520408 4.15798 118 68 10
-0.341836 0.19665 3.82377 52 14 28
-0.312705 0.0578314 4.16244 114 18 38
-0.350221 0.00341177 4.15521 80 8 20
-0.318266 0.0726521 4.17884 83 20 28
-0.433465 -0.0329065 4.42311 131 84 78
-0.412952 -0.0179604 4.35035 198 145 154
-0.41961 -0.0229133 4.35282 109 2 30
-0.396998 0.0212369 4.3185 146 30 59
-0.376834 0.0392671 4.26621 122 102 94
-0.373356 0.0462962 4.25667 181 151 146
-0.365066 0.0512906 4.22438 83 26 32
-0.390982 0.0368254 4.26611 196 140 147
-0.438416 -0.00384216 4.3926 110 1 28
-0.392509 0.0340247 4.26618 91 0 21
-0.383359 0.031588 4.19311 84 17 25
-0.359473 0.0651871 4.17515 147 40 66
-0.377502 0.0588399 4.22763 140 26 55
-0.406882 0.0350773 4.28444 189 130 137
-0.383612 0.050826 4.22313 101 2 22
-0.435539 0.0141586 4.35461 182 146 144
-0.392173 0.0399821 4.21103 134 23 53
-0.379754 0.0614646 4.21222 134 23 53
-0.385325 0.0640203 4.19646 96 16 30
-0.443653 0.0251097 4.34298 174 155 148
-0.374743 0.0735395 4.15479 90 2 21
-0.468577 -0.0161862 4.3345 185 156 152
-0.407991 0.0493943 4.23805 182 138 138
-0.47117 0.00944669 4.42892 199 163 150
-0.367667 0.08562 4.13023 98 10 30
-0.409161 0.0572338 4.23577 167 126 125
-0.426099 0.0450758 4.27777 182 128 136
-0.487632 -0.0245395 4.35409 105 2 26
-0.3975 0.0685096 4.19194 172 114 122
-0.406413 0.0623699 4.20099 100 2 26
-0.450028 0.0400724 4.34928 116 4 33
-0.285739 0.210548 4.10947 87 6 20
-0.437934 0.0346127 4.24838 109 86 77
-0.359903 0.107363 4.09322 163 74 94
-0.476302 0.0032706 4.3409 190 146 149
-0.421222 0.0570877 4.22965 172 134 131
-0.426916 0.065315 4.26537 106 2 24
-0.431869 0.0471203 4.21948 150 40 66
-0.480143 0.0321388 4.42342 104 37 38
-0.291115 0.135414 3.85409 8 30 25
-0.389402 0.0944301 4.16147 66 2 10
-0.410769 0.074148 4.19243 90 0 18
-0.263756 0.187139 3.86166 134 126 118
-0.527027 -0.0449782 4.3539 184 142 143
-0.525101 -0.039739 4.34505 98 0 21
-0.421855 0.078127 4.22387 84 4 17
-0.410605 0.0830891 4.17329 144 70 75
-0.455075 0.0419465 4.25526 103 3 31
-0.420977 0.0748489 4.17508 158 112 89
-0.4505 0.0694469 4.28923 156 113 78
-0.286054 0.180012 3.84236 115 125 119
-0.28821 0.186759 3.8586 22 32 26
-0.300345 0.183533 3.85637 134 144 132
-0.287494 0.204364 3.85974 123 126 120
-0.293779 0.198416 3.86026 8 24 15
-0.313697 0.190574 3.8364 129 138 134
-0.345624 0.186594 3.83534 145 120 118
-0.362868 0.173443 3.81744 14 0 0
-0.573902 -0.0109495 4.1206 85 72 65
-0.59423 -0.0269638 4.13082 114 100 88
-0.586512 -0.0201993 4.11644 156 138 133
-0.590021 -0.0154044 4.12292 172 158 152
-0.377566 0.195864 3.84893 114 44 61
-0.616479 -0.010402 4.13145 94 82 76
-0.461024 -0.370406 3.94847 64 7 8
-0.275873 0.0110368 4.04847 92 16 16
-0.276302 0.0105424 4.04894 92 16 16
-0.0866956 0.278291 3.84811 62 26 38
-0.25831 0.0321118 3.99441 145 140 130
-0.292044 0.00698508 4.03655 177 138 144
-0.267138 0.0399952 3.97182 138 145 136
-0.250222 0.0709584 3.91244 34 42 38
-0.22574 0.106661 3.85737 138 160 152
-0.266326 0.0619871 3.92181 154 157 149
-0.26379 0.0731056 3.90511 10 31 19
-0.189735 0.157817 3.76947 172 152 137
-0.312113 0.0577162 3.94601 2 16 16
-0.415604 0.0512176 4.25643 190 126 131
-0.162905 0.158705 3.79116 155 138 134
-0.171286 0.156191 3.79492 157 136 136
-0.254251 0.0894515 3.88802 34 47 37
-0.3043 0.0933686 4.10337 176 135 133
-0.182019 0.187413 3.7731 172 152 132
-0.26288 0.0925577 3.88613 24 47 44
-0.264279 0.0895893 3.88648 24 47 44
-0.457739 -0.0157121 4.42307 150 59 72
-0.271249 0.0966884 3.88276 156 170 166
-0.492361 -0.0036584 4.41517 139 112 97
-0.494665 -0.00255963 4.41405 188 159 146
-0.500336 0.00271592 4.41294 106 36 36
-0.315542 0.133392 3.89011 14 22 16
-0.315542 0.133392 3.89011 14 22 16
-0.507805 0.006595 4.41064 196 156 144
-0.272841 0.0950992 3.83002 134 146 140
-0.291162 0.192149 3.7995 144 117 115
-0.301983 0.180119 3.70662 160 120 97
-0.303659 0.160983 3.62333 114 94 85
-0.313105 0.176451 3.63439 73 12 38
-0.318737 0.173799 3.64121 112 77 76
-0.340936 0.196459 3.80489 62 4 32
-0.401559 0.0377866 4.27197 104 4 22
-0.692099 -0.992687 3.51587 40 56 47
-3.41659 -6.01782 3.19476 186 170 154
-2.69815 -4.63337 3.36991 50 32 11
-0.189786 0.186252 4.07065 116 18 22
-0.676092 -0.641557 3.98421 156 104 102
-0.663228 -0.606737 3.99114 81 2 16
-0.458871 -0.478331 3.36765 53 10 26
-0.216621 0.150836 3.95208 148 153 146
-0.565613 -0.372651 4.08067 137 14 45
-0.222146 0.17422 4.02268 2 26 36
-0.466249 -0.469174 3.29744 80 74 69
-0.217422 0.101777 3.71339 122 104 96
-0.666627 -0.457506 4.23765 194 146 149
-0.375015 -0.223797 3.52219 36 26 24
-0.195826 0.173434 3.77457 122 40 7
-0.17498 0.263991 3.95255 156 148 144
-0.434598 -0.366217 3.34056 82 78 73
-0.280984 0.146927 4.10576 122 96 72
-0.298117 -0.0410174 3.61009 12 10 8
-0.23274 0.109527 3.67009 26 19 13
-0.389283 -0.173417 3.5367 124 88 78
-0.389283 -0.173417 3.5367 124 88 78
-0.399775 -0.222067 3.40188 78 73 69
-0.399775 -0.222067 3.40188 78 73 69
-0.298072 -0.00111568 3.59634 83 48 48
-0.232558 0.292398 4.12874 112 32 46
-0.402888 -0.197923 3.40738 127 120 116
-0.406548 -0.195177 3.4067 151 144 140
-0.393413 0.0548658 4.0784 86 20 24
-0.408306 0.0372875 4.07525 180 124 128
-0.41116 0.0321891 4.07147 103 82 60
-0.293361 0.181618 3.98566 143 138 129
-0.293361 0.181618 3.98566 143 138 129
-0.305444 0.166377 3.74243 104 28 7
-0.470813 -0.107016 3.46632 66 40 40
-0.598894 -0.116431 4.05629 14 6 0
-0.319119 0.170577 3.62198 78 58 52
-0.321277 0.170073 3.61893 108 90 82
-0.338623 0.180153 3.78157 32 54 34
-0.290647 0.271097 3.86114 130 116 110
-0.325527 0.178748 3.65177 112 79 82
-0.559659 -0.00524245 4.10032 76 62 56
-0.341844 0.238362 3.85337 13 2 2
-0.228211 0.453191 4.04982 117 112 107
-0.40959 0.206743 3.97979 28 14 14
-0.337046 0.187997 3.67644 140 138 127
-0.245277 0.0742672 4.01636 154 155 152
-0.193817 0.0641893 3.62627 116 111 110
-0.235366 0.103869 3.93053 80 83 82
-0.2108 0.0864769 3.75059 153 134 134
-0.236893 0.108213 3.93213 144 154 148
-0.213475 0.0925519 3.75901 140 128 120
-0.208307 0.0899246 3.72022 62 48 45
-0.2549 0.0949965 4.00685 151 152 146
-0.195566 0.0861729 3.63058 114 112 110
-0.234687 0.0322014 3.77022 106 24 57
-0.217586 0.100306 3.76802 146 132 129
-0.293145 0.0178025 4.05689 85 4 45
-0.245303 0.114889 3.92881 62 76 70
-0.201459 0.0989323 3.62604 97 94 96
-0.206138 0.1082 3.62845 90 88 84
-0.231229 0.129668 3.79863 78 12 38
-0.207598 0.111213 3.62452 90 88 86
-0.259405 0.133913 3.97484 12 34 35
-0.259234 0.134537 3.97454 12 34 35
-0.218016 0.12568 3.67705 72 40 42
-0.259292 0.148961 3.95516 143 146 144
-0.240097 0.127796 3.78784 127 101 95
-0.223517 0.129984 3.68211 136 122 118
-0.224324 0.130127 3.68678 147 140 130
-0.226537 0.131997 3.69905 138 116 112
-0.227234 0.136309 3.68774 138 128 122
-0.229509 0.134885 3.68977 67 46 42
-0.217956 0.136569 3.62491 86 84 82
-0.346495 0.000112295 4.15762 80 3 11
-0.231556 0.143604 3.71564 152 114 94
-0.229719 0.137659 3.68543 46 30 28
-0.230328 0.140653 3.68748 64 42 41
-0.259608 0.150682 3.89454 140 153 146
-0.27458 0.151284 3.97827 2 32 38
-0.235062 0.136634 3.70095 123 90 85
-0.270558 0.161348 3.96872 146 143 134
-0.367424 -0.00550104 4.22507 192 142 148
-0.346494 0.0281355 4.12194 112 18 42
-0.340834 0.0331116 4.09273 174 127 131
-0.265854 0.162421 3.86507 149 150 144
-0.233244 0.153016 3.62116 108 103 102
-0.239731 0.153257 3.61544 107 104 102
-0.240648 0.154723 3.61708 107 104 102
-0.381927 0.0145274 4.226 132 42 62
-0.318506 0.0765302 3.93886 1 16 20
-0.38337 0.021993 4.22441 184 144 148
-0.411048 -0.000836502 4.33278 108 4 29
-0.434226 -0.0208114 4.42527 208 179 168
-0.434572 -0.0226457 4.42143 140 64 66
-0.388636 0.0378295 4.27235 132 34 56
-0.368718 0.0461827 4.13026 157 41 72
-0.433922 -0.0165575 4.4142 172 98 106
-0.434429 -0.0136772 4.41028 118 4 34
-0.376426 0.046252 4.16341 166 50 82
-0.297733 0.150828 3.84697 130 132 125
-0.367454 0.068126 4.08717 146 126 114
-0.392841 0.0511903 4.19737 169 134 133
-0.383303 0.0612688 4.15285 100 2 26
-0.405984 0.0381723 4.24253 156 37 71
-0.405984 0.0381723 4.24253 156 37 71
-0.271949 0.165582 3.60713 138 130 128
-0.272862 0.171625 3.62766 26 14 27
-0.373912 0.0930974 4.08486 91 3 23
-0.474744 0.0284615 4.42828 146 126 108
-0.326605 0.19176 3.78592 131 135 121
-0.334316 0.19901 3.85824 146 117 120
-0.359116 0.18997 3.80676 59 53 52
-0.361655 0.196687 3.84487 125 50 70
-0.359185 0.189614 3.77091 5 34 19
-0.393334 0.206568 4.02262 130 106 110
-0.393319 0.20697 4.02235 130 106 110
-0.3888 0.182367 3.78364 64 88 66
-0.390416 0.178923 3.76321 74 85 70
-0.590465 -0.10296 3.9902 100 89 66
-0.539967 0.0764043 4.14669 148 138 130
-0.328139 0.165445 4.08601 76 28 16
-0.35921 0.0809191 4.08844 118 36 50
-0.365054 0.083227 4.08785 114 2 32
-0.370889 0.0906996 4.09362 180 129 135
-0.370889 0.0906996 4.09362 180 129 135
-0.380964 0.0933589 4.11717 187 92 116
-0.37842 0.10689 4.08602 108 43 38
-0.486265 0.161779 4.14965 162 114 60
-0.548158 0.0777144 4.12552 133 112 102
-0.288808 -0.159681 3.83465 168 175 170
-0.241911 0.0326476 4.07206 198 187 168
-0.23483 0.0433535 3.9636 86 92 86
-0.238894 0.0936718 3.98128 152 151 144
-0.230952 0.0925516 3.92359 48 58 56
-0.194518 0.0683669 3.62567 118 110 110
-0.235901 0.103229 3.93132 95 96 92
-0.241911 0.108944 3.96039 8 42 50
-0.239308 0.112258 3.93544 67 78 73
-0.217309 0.106992 3.76524 140 132 127
-0.244569 0.135519 3.84985 148 156 152
-0.323074 0.0244814 4.09786 162 130 113
-0.326416 0.0218326 4.11109 167 124 113
-0.365463 0.00221105 4.25296 162 142 127
-0.332683 0.0302857 4.09504 95 8 26
-0.3631 0.00594863 4.23148 119 48 58
-0.273574 0.154396 3.95427 3 34 40
-0.337002 0.0370745 4.09289 106 34 44
-0.344981 0.0335373 4.12317 120 26 45
-0.384708 0.0311499 4.2137 90 44 47
-0.39314 0.0380412 4.22268 119 3 32
-0.425514 0.0118412 4.35276 192 140 144
-0.425691 0.0127152 4.34713 118 6 35
-0.401042 0.0539918 4.20103 158 48 80
-0.412314 0.0518899 4.23672 174 134 132
-0.441028 0.0238294 4.35511 188 171 165
-0.449697 0.0169374 4.38901 124 0 36
-0.442698 0.0267215 4.3438 172 153 144
-0.415483 0.0723766 4.21884 145 20 54
-0.453865 0.0376834 4.34971 172 52 84
-0.459358 0.0319502 4.36312 160 50 76
-0.460668 0.0382339 4.37388 164 30 70
-0.477287 0.0265428 4.4168 182 98 111
-0.335713 0.179363 3.75559 76 2 40
-0.474523 0.0443583 4.38287 195 144 145
-0.494445 0.0404984 4.43268 159 123 89
-0.499412 0.0455909 4.43158 142 108 78
-0.353362 0.141555 3.56168 65 6 40
-0.392774 0.182738 4.01025 121 117 106
-0.407078 0.162241 3.64246 102 72 76
-0.40713 0.156664 3.60898 123 87 94
-0.409757 0.160345 3.63486 120 86 90
-0.323579 0.187278 3.68588 144 137 130
-0.347244 0.191707 3.75182 75 95 78
-0.397763 0.170914 3.58663 66 12 38
-0.24694 0.148034 3.70156 180 132 112
-0.30824 0.18706 3.81125 102 66 72
-0.416445 0.194706 3.90116 120 102 108
-0.409354 0.176544 3.71442 60 6 32
-0.416887 0.171675 3.72179 48 4 23
-0.45144 0.16635 3.82562 122 79 94
-0.406066 0.16443 3.61678 122 84 96
-0.444992 0.153706 3.72987 96 60 76
-0.335516 0.192726 3.84712 156 143 140
-0.220163 0.156232 3.80856 156 113 118
-0.376597 0.055772 4.22492 118 38 54
-0.357026 0.0568521 4.2411 134 118 109
-0.454305 0.00747416 4.3568 116 40 54
-0.247232 0.125106 3.90855 148 148 138
-0.207899 0.135276 3.63176 150 146 140
-0.236155 0.153474 3.62034 144 140 136
-0.284831 0.168713 3.95983 2 17 18
-0.289107 0.171137 3.96395 0 16 24
-0.261784 0.150747 3.64293 72 41 39
-0.534837 0.0778652 4.14273 191 182 176
-0.514508 0.0913975 4.06078 50 28 10
-0.480608 0.0980405 3.774 116 88 92
-0.374632 0.0495676 4.25724 132 30 51
-0.439495 0.0197056 4.33507 145 44 68
-0.373843 0.0967456 4.14882 150 36 62
-0.196187 0.0434903 3.75012 128 124 116
-0.206734 0.0701728 3.87288 87 87 77
-0.206734 0.0701728 3.87288 87 87 77
-0.191346 0.0509619 3.72324 80 66 64
-0.196439 0.0522332 3.75255 60 48 42
-0.22742 0.103508 4.05151 126 37 42
-0.201631 0.0344463 3.7125 134 108 113
-0.199242 0.053144 3.73533 54 46 40
-0.205803 0.0986148 3.88345 144 158 152
-0.205803 0.0986148 3.88345 144 158 152
-0.196237 0.0312063 3.62121 148 145 138
-0.196237 0.0312063 3.62121 148 145 138
-0.190551 0.0594479 3.66983 98 96 82
-0.217709 0.135952 3.97341 144 150 148
-0.218605 0.144696 3.94583 142 152 145
-0.34606 0.0138446 4.20061 160 135 116
-0.396063 -0.0407239 4.29607 184 146 138
-0.403111 -0.0504447 4.30583 173 129 124
-0.394173 -0.0296796 4.29711 77 14 28
-0.221878 0.14471 3.90827 158 160 153
-0.363215 0.0115293 4.22998 106 2 26
-0.229488 0.160539 3.93027 45 49 42
-0.26934 0.0928841 3.87805 21 48 42
-0.253971 0.191038 3.97948 146 142 133
-0.269601 0.20791 3.99735 140 134 128
-0.277751 0.207169 3.99278 140 146 142
-0.274034 0.221475 4.00544 138 140 132
-0.425384 0.0680047 4.29567 119 2 32
-0.425384 0.0680047 4.29567 119 2 32
