ply
format ascii 1.0
element vertex 824
property float x
property float y
property float z
property uchar red
property uchar green
property uchar blue
end_header
1.07123 -0.154011 4.51772 0 255 0
1.09807 -0.0356306 4.47075 0 255 0
1.26881 -0.0365511 4.44735 0 255 0
1.42108 -0.0485952 4.42612 0 255 0
1.60921 -0.064881 4.43234 0 255 0
1.80011 -0.0653963 4.45313 0 255 0
1.96668 -0.0667456 4.49706 0 255 0
2.10634 -0.089033 4.56796 0 255 0
2.26249 -0.0990537 4.67422 0 255 0
2.31464 -0.10808 4.71188 0 255 0
2.2553 0.0182297 4.68827 0 255 0
2.11997 0.055245 4.66015 0 255 0
1.93636 0.0490189 4.57566 0 255 0
1.77186 0.0413334 4.47609 0 255 0
1.24588 -2.17359 6.27356 0 255 0
0.671146 -0.591625 5.94214 116 114 82
0.713893 -0.541334 6.00788 170 164 148
0.73962 -0.528722 5.98346 184 180 164
0.758324 -0.518268 5.99686 107 108 82
0.800682 -0.472358 6.00889 166 163 138
0.803595 -0.478971 6.01363 107 104 79
0.834024 -0.467618 6.04871 144 144 103
0.893803 -0.406994 6.07265 114 114 95
0.927587 -0.0591406 6.0737 148 104 79
0.951459 -0.294486 6.04317 182 180 156
0.946734 0.261605 6.35468 202 192 169
1.01145 -0.067083 6.20842 46 25 10
1.01705 0.0605924 6.08664 74 54 40
1.03942 0.207401 6.15735 58 22 12
1.07293 0.124089 6.02757 200 161 146
1.10489 -0.149466 6.10674 172 173 154
1.13876 -0.216804 6.16858 223 232 191
1.1332 0.255543 6.1187 54 20 14
1.15494 0.389757 6.20721 168 145 146
1.21988 -0.258365 6.17129 171 168 126
1.30248 0.508634 6.30323 103 70 64
1.32485 -0.333972 6.26687 218 225 184
1.30201 0.0588582 5.97394 72 37 18
1.3349 0.289779 6.1372 167 126 126
1.36611 0.334514 6.19119 68 36 35
1.38196 0.329896 6.19217 85 54 53
1.3914 0.166897 6.07658 50 25 18
1.40199 0.161005 6.08025 171 143 142
1.40994 0.115437 6.0309 162 127 116
1.43015 0.0277578 6.10476 133 125 107
1.41669 0.0951014 6.05288 74 61 38
1.53534 0.180768 6.35811 150 123 118
1.53107 0.0378733 6.19179 201 168 143
1.58412 -0.107652 6.22866 225 231 194
1.59442 -0.092655 6.24607 222 188 174
1.59746 -0.045798 6.21984 226 230 201
1.61568 -0.102638 6.22451 194 166 147
1.62209 -0.139044 6.23675 171 132 105
0.721562 -0.244365 6.23416 107 104 64
0.73951 -0.249284 6.24321 122 119 76
0.852442 -0.16925 6.21672 156 122 84
0.853142 -0.18317 6.21745 198 193 154
0.909781 -0.0988991 6.39346 182 168 128
0.933033 -0.18948 6.25872 90 91 52
0.933022 -0.189477 6.25896 90 91 52
0.956202 -0.368823 6.10863 204 206 156
0.928308 -0.0800938 6.42557 76 40 16
0.985712 -0.340682 6.13348 208 211 164
1.01785 0.00850094 5.85547 58 34 23
1.03881 0.330623 6.26544 144 110 100
1.0445 0.332988 6.26758 70 31 22
1.07401 -0.266067 6.17633 208 212 166
1.13101 -0.0427808 5.97279 116 120 110
1.18261 0.00388814 5.80059 149 148 120
1.2138 0.0199064 5.77286 116 128 90
1.38026 0.0139288 6.3286 12 8 0
1.41222 0.161911 6.08161 28 12 6
1.40765 0.0961406 6.05166 164 142 127
1.49059 0.1501 6.1806 64 42 35
1.52327 -0.0047746 6.28391 174 152 134
1.54131 -0.0434455 6.32484 94 66 35
1.54299 0.0255271 6.22764 116 75 52
1.61902 -0.177845 6.28762 118 85 54
1.58986 0.227095 5.89189 99 88 64
0.998439 -0.0543327 5.90121 121 108 75
1.07536 -0.258613 6.1881 92 96 58
1.30926 0.0508881 5.9473 18 10 2
1.40462 0.204805 6.12463 48 23 19
1.49414 -0.0810485 6.3253 127 110 74
1.4988 0.0425014 6.18948 50 22 10
1.73065 -0.486921 6.10525 194 195 151
1.83462 -0.527412 6.05487 65 71 37
1.83462 -0.527412 6.05487 65 71 37
0.952029 -0.335651 6.07128 123 124 102
0.965046 -0.027591 5.97133 59 54 32
1.0395 0.0825266 6.0343 116 77 52
1.54835 -0.106178 6.30071 182 196 154
1.54408 -0.100028 6.27631 182 196 154
0.702908 0.223953 9.23856 81 50 25
1.49873 0.0502396 6.15304 170 142 128
0.974496 -0.0830065 6.23937 188 174 142
0.643979 -0.228853 6.30769 106 90 50
0.643979 -0.228853 6.30769 106 90 50
1.35469 -0.0431319 6.00885 86 86 72
1.2547 0.012852 6.08479 86 82 48
0.826914 -0.477446 6.04408 200 199 146
0.841046 -0.415236 6.02009 137 133 110
0.858727 -0.451359 6.06257 200 200 148
0.893395 -0.157189 6.1672 142 120 97
0.895462 -0.143399 6.15195 164 134 113
0.911004 -0.715301 6.4036 202 202 149
0.94117 0.176276 6.2759 96 57 38
0.946887 0.209668 6.28471 56 24 11
0.944449 -0.65993 6.35981 106 111 81
0.953215 0.144617 6.23563 86 46 23
0.963039 -0.655811 6.36421 198 198 148
0.99482 0.11409 6.15317 94 49 37
1.01202 -0.320088 6.15962 206 209 162
1.00052 0.408636 6.39886 60 28 14
1.01211 -0.538714 6.28361 150 156 122
1.03746 0.399154 6.32759 45 8 2
1.07977 -0.245028 6.21859 96 97 60
1.08923 0.12399 6.02141 112 57 32
1.12767 0.220827 6.08933 38 14 8
1.12785 0.219838 6.07849 38 14 8
1.20004 0.0385922 5.76529 119 126 90
1.25327 0.516522 6.30505 96 54 43
1.20612 0.0888358 5.71272 109 119 90
1.26202 0.515317 6.28937 112 74 61
1.26239 0.427012 6.21026 68 28 24
1.32528 0.521577 6.31995 118 82 78
1.32966 0.529037 6.32505 184 166 166
1.29876 0.201001 6.0524 70 36 32
1.31981 0.314214 6.14787 66 30 26
1.3738 -0.137696 6.50713 200 197 170
1.33985 0.390841 6.22468 138 96 97
1.35013 0.453667 6.27374 153 130 128
1.35878 0.402416 6.25198 73 41 36
1.34752 0.0684018 5.99596 18 13 7
1.42801 0.424592 6.35133 138 97 92
1.38476 0.207106 6.09932 48 27 21
1.42783 0.392127 6.33433 160 122 119
1.38931 0.0823564 6.0411 29 21 14
1.40516 0.203938 6.1214 56 33 26
1.54033 -0.093328 6.4516 196 210 167
1.50318 0.0279192 6.21909 110 79 64
1.55054 0.0133381 6.25711 197 156 143
1.58369 0.291167 5.94572 210 196 186
1.59513 0.234817 5.88313 138 118 78
1.61209 0.272904 5.89987 204 198 190
1.62243 0.272305 5.89375 122 78 52
1.32862 -0.0774672 6.21713 36 14 8
1.51424 -0.734312 6.315 190 193 147
1.5465 -0.0176912 6.21666 108 65 38
1.57089 -0.066296 6.19965 133 91 70
1.57022 -0.0668542 6.19516 133 91 70
1.61779 -0.211864 6.3613 190 196 156
1.58488 -0.0649052 6.1763 209 176 169
1.59353 0.171564 5.90447 197 192 180
0.973777 -0.104028 6.20937 74 58 30
1.08702 -0.212928 6.14025 132 130 102
1.12962 -0.210379 6.16464 77 82 38
0.602178 -0.633108 5.93723 164 162 110
0.672896 -0.60081 5.96601 169 170 115
0.709343 -0.543964 5.9612 108 109 88
0.71433 -0.565081 5.98432 167 166 114
0.638852 -0.206875 6.24864 110 79 38
0.745837 -0.525364 5.9941 102 104 84
0.745086 -0.526348 5.99565 102 104 84
0.749735 -0.51116 5.99169 58 62 39
0.754788 -0.534569 6.00873 162 160 103
0.696016 -0.227663 6.22777 52 43 16
0.772706 -0.516533 6.0152 100 98 62
0.784916 -0.454847 5.9951 65 62 35
0.909881 0.0570264 5.6283 115 115 100
0.894841 0.0142959 5.72298 163 156 130
0.916188 0.00761324 5.69196 164 155 131
0.847723 -0.389679 6.01935 72 71 40
0.98702 -0.0075887 5.73165 92 96 78
0.88181 -0.0802162 6.37797 118 84 43
0.95652 0.0314273 6.07068 100 63 48
0.95652 0.0314273 6.07068 100 63 48
0.92772 0.157023 6.26577 157 150 122
0.943437 -0.682021 6.34355 170 171 115
0.956532 0.246333 6.28981 148 137 110
0.955013 0.240547 6.30889 50 20 8
0.981696 0.308044 6.26154 146 132 108
0.962699 -0.0755987 6.38742 168 168 120
1.05799 -0.037029 5.83734 90 93 74
1.1582 0.300236 5.5403 152 140 130
1.14572 -0.0634191 6.11058 36 28 10
1.2002 0.0376647 5.7631 96 102 64
1.22476 0.526251 6.30119 108 64 48
1.24969 -0.0569635 6.20653 152 152 152
1.28682 0.196956 6.04775 120 100 96
1.35677 -0.140947 6.53514 141 134 118
1.35983 -0.125184 6.47909 30 12 2
1.3684 -0.107817 6.48141 84 56 44
1.36858 -0.108328 6.477 84 56 44
1.39862 -0.15181 6.51492 80 58 32
1.38933 0.237238 6.12195 122 99 98
1.42191 -0.173881 6.48692 168 176 136
1.42747 -0.187089 6.49195 166 177 136
1.44541 0.322643 6.27731 114 85 82
1.45172 0.325718 6.29466 62 30 24
1.45175 0.325693 6.29571 62 30 24
1.42866 0.0965958 6.0212 128 108 99
1.4443 -0.233944 6.11426 98 101 86
1.5202 -0.00992982 6.27475 38 18 6
1.52563 -0.0265115 6.31163 28 10 0
1.50756 0.0556437 6.14283 178 155 146
1.51744 0.0374647 6.17018 74 37 13
1.49899 0.0560051 6.02441 54 34 19
1.54861 0.0643453 6.19063 82 50 32
1.57765 -0.00569575 6.22183 95 110 71
1.62291 -0.212056 6.31894 168 176 133
1.59504 0.286679 5.94548 174 165 156
0.901259 -0.0993212 6.09792 120 74 49
0.931858 -0.385157 6.09614 91 90 56
1.27331 0.163719 6.01964 72 32 26
1.44873 -0.376988 6.37561 164 172 124
1.42803 -0.251235 5.45825 80 88 50
1.45482 -0.344635 6.37988 48 56 36
1.54271 -0.417556 6.24751 76 80 46
1.52208 -0.0778029 6.41039 148 125 102
1.06917 -0.148873 6.08811 136 142 104
1.27054 0.0926117 6.01377 40 12 4
0.996159 0.32904 6.27188 70 31 16
1.38077 -0.25943 6.22774 52 56 40
0.86995 -0.467261 6.56644 168 169 118
1.27778 0.411985 6.83328 52 22 16
1.52636 -0.0340242 6.37967 126 98 88
1.6117 -0.118452 6.2408 115 78 61
1.35677 -0.491449 6.37892 89 97 65
1.89412 -0.63928 5.99794 84 88 60
0.708563 -0.544805 5.96271 97 98 78
0.781697 -0.476155 5.98737 110 104 85
0.69244 -0.239284 6.2327 148 141 89
0.921666 -0.32903 6.02959 102 98 70
0.942293 0.0283945 5.97422 158 150 127
0.927897 0.11004 6.18339 154 144 117
0.956738 0.0768354 6.07889 94 48 24
0.953663 0.120968 6.17581 78 38 19
0.892308 -0.732317 6.39808 161 161 106
0.912293 -0.0970069 6.38285 161 151 110
0.976939 0.0367388 6.14384 102 79 70
0.999974 0.0794682 6.0661 81 40 14
0.943473 -0.0681477 6.40311 48 26 12
1.02487 -0.208942 6.0849 58 59 26
0.974859 -0.0743412 6.34707 154 154 114
1.00794 -0.0672511 6.26282 20 14 2
1.06194 -0.536015 6.30398 155 160 110
1.10379 -0.384939 6.20938 100 109 69
1.09478 -0.466063 6.25803 68 82 38
1.23092 0.0764747 5.72615 87 100 76
1.15917 -0.362471 6.21803 73 85 38
1.16337 0.455473 6.25386 124 92 85
1.23376 0.0596356 6.07448 89 58 40
1.27009 0.0839161 5.98948 39 14 7
1.25536 -0.0159827 6.23163 120 118 110
1.26238 0.426176 6.19695 58 20 12
1.26489 0.493275 6.26059 122 89 80
1.28073 0.379036 6.17456 57 14 8
1.30163 0.115005 5.9846 164 142 140
1.3094 0.0762226 5.95293 94 60 47
1.28886 0.511794 6.28257 142 106 102
1.28867 -0.0282689 6.3127 12 6 4
1.32275 0.527255 6.31133 94 62 58
1.38178 0.33088 6.18822 40 14 12
1.3758 -0.154381 6.54858 88 62 31
1.39221 0.166919 6.07499 25 8 4
1.38367 -0.129713 6.48461 60 33 16
1.42123 0.387497 6.31036 56 25 22
1.42669 0.270513 6.2006 42 12 6
1.43335 0.450239 6.44002 90 52 44
1.4361 0.38701 6.32251 44 14 8
1.44553 0.322581 6.27706 118 91 89
1.44313 0.0989196 6.0124 28 31 11
1.47981 0.313391 6.38906 52 18 11
1.48319 -0.260685 6.13231 48 61 38
1.52557 -0.0265103 6.31549 24 7 2
1.55632 0.0791633 6.21657 120 86 74
1.55559 -0.333956 6.08511 79 84 59
1.62561 -0.240581 6.31401 79 81 40
1.5893 0.279377 5.94749 164 150 140
1.632 -0.249349 6.33402 82 84 39
1.62092 -0.136349 6.22419 118 79 52
1.89832 -0.68553 5.99364 68 72 30
1.89832 -0.68553 5.99364 68 72 30
0.637733 -0.207013 6.25015 99 70 29
0.835396 -0.180241 6.21997 146 144 89
0.953578 0.121227 6.1755 74 32 16
0.990852 0.0576426 6.09166 66 36 16
1.28922 0.148012 6.00471 66 29 20
1.51786 0.00563844 6.24229 40 16 6
0.693463 -0.564765 5.95852 40 48 24
1.03152 -0.259785 6.11542 92 92 68
1.06311 -0.232941 6.12757 86 88 62
1.37357 0.490356 6.33045 132 109 108
0.690815 -0.591134 5.9624 156 154 100
0.883257 -0.0655764 6.06833 148 148 90
1.0229 -0.165237 6.12673 102 104 68
1.06245 -0.233629 6.12694 86 88 60
1.10881 -0.340069 6.00027 86 90 39
1.18885 0.0841695 6.26773 14 8 3
0.919971 -0.386916 6.08739 54 60 33
1.29708 0.0911245 5.97638 90 61 49
1.50399 -0.719916 6.30389 156 164 112
1.62406 -0.286321 5.27166 50 51 24
0.664284 -0.596538 5.97485 50 54 23
0.725708 -0.522902 5.97542 46 48 24
0.757796 -0.252925 6.24312 148 147 89
0.907117 -0.3348 6.03265 75 72 43
0.898314 -0.142551 6.24892 54 32 16
0.968385 0.0773791 6.09447 92 48 18
0.978688 0.0789824 6.09102 79 36 12
1.00979 0.0777456 6.0444 90 48 22
1.0185 0.0605086 6.08572 30 21 16
0.94384 -0.65471 6.35715 59 71 36
0.93742 -0.677793 6.37728 159 159 106
1.03924 -0.275032 6.16837 46 56 24
1.23339 0.114641 5.71942 66 68 47
1.13714 0.214345 6.07439 97 61 52
1.1529 0.176986 6.02916 37 12 6
1.14832 0.224795 6.08779 19 4 4
1.23659 0.0986875 5.76797 170 118 91
1.13358 0.33319 6.17081 50 15 6
1.15156 0.266719 6.1242 16 8 6
1.2379 -0.0207823 5.82188 118 127 98
1.22788 0.0634987 5.93453 12 8 5
1.16914 0.456803 6.25735 58 16 12
1.22893 0.0792247 6.01374 24 6 2
1.20662 -0.438649 6.219 158 164 111
1.22959 0.504884 6.28626 80 26 12
1.27585 0.238662 6.07457 46 14 6
1.29679 0.0596359 5.9735 75 49 38
1.28714 0.196838 6.04714 116 96 90
1.27576 -0.369711 6.02273 86 94 46
1.281 0.276782 6.1005 124 94 90
1.27833 0.31401 6.12771 108 65 58
1.29381 0.0450978 6.01556 36 14 4
1.25171 0.517646 6.29494 86 40 25
1.29852 0.127941 6.00805 67 31 16
1.31003 0.0620961 5.98151 26 8 2
1.31396 0.0675732 5.96071 94 66 58
1.27217 0.513767 6.28657 140 94 80
1.29979 0.49895 6.29773 65 22 18
1.3036 -0.625387 6.43218 162 162 108
1.38142 0.492036 6.36705 74 42 36
1.52972 0.0108148 5.10557 144 103 82
1.43011 0.0999427 6.01715 127 102 91
1.40983 0.456473 6.35497 130 105 103
1.44265 0.383359 6.34699 38 6 0
1.46581 0.270264 6.25147 28 12 10
1.50989 -0.301997 5.6805 76 78 64
1.50487 0.0822337 6.00465 36 35 16
1.52594 0.0892303 6.12814 163 136 126
1.51773 -0.355984 6.1558 58 63 25
1.52533 -0.309526 6.10078 80 88 66
1.53996 0.0336753 6.19758 80 35 8
1.54052 0.0358309 6.19353 80 35 8
1.53946 -0.0120897 6.19675 90 44 10
1.52235 -0.72956 6.32385 69 85 43
1.5505 0.106948 6.33728 152 153 140
1.55843 0.0666625 6.17476 148 110 99
1.54946 -0.380498 6.1595 62 64 28
1.584 0.291084 5.94408 156 141 136
1.58576 0.287321 5.94988 86 52 30
1.57954 -0.341054 5.56262 92 92 48
1.60189 0.199213 5.89323 67 59 18
1.61186 0.27255 5.8952 162 146 138
1.68571 -0.46397 6.10373 158 162 114
1.6941 -0.462101 6.10044 64 65 32
1.69808 -0.469076 6.09799 160 164 113
1.69888 -0.468537 6.0956 160 164 110
1.738 -0.47959 6.09079 60 60 24
1.74292 -0.473881 6.09877 83 79 51
1.74292 -0.473881 6.09877 83 79 51
1.80633 -0.515278 6.07544 158 160 108
0.670827 -0.55385 5.96556 149 148 95
0.68459 -0.589203 5.97563 153 154 102
0.721825 -0.499779 5.98356 146 146 88
0.925362 -0.387563 6.07898 52 58 28
1.29883 -0.36218 6.05282 86 84 50
0.738165 -0.545972 5.99935 156 155 100
0.97076 -0.629901 6.37612 106 112 67
0.716676 -0.554746 5.98408 94 91 71
1.37669 0.316025 6.17139 119 102 100
1.52875 -0.719585 6.32065 160 166 116
0.800668 -0.496865 6.03121 152 150 100
0.717843 -0.527626 5.96228 78 73 51
0.861559 0.685373 6.92562 140 116 112
1.04881 0.477273 6.36106 134 100 86
1.23543 0.0798625 6.03022 90 64 54
1.28912 0.164067 6.02762 102 69 64
1.28378 0.520378 6.29282 155 119 113
1.3074 0.345219 6.14999 118 71 62
1.44643 0.107439 6.02739 31 30 12
1.50083 0.067826 6.01601 124 98 78
1.58395 -0.00483325 5.17589 73 57 36
0.964438 -0.274083 6.04939 78 75 46
0.893493 -0.197063 6.25603 44 46 23
0.965575 -0.350825 6.12196 74 78 49
0.998096 -0.237992 6.05851 72 70 41
1.03372 -0.144426 6.11552 38 42 16
1.05183 -0.249135 6.24377 47 56 21
1.16779 -0.162929 6.0274 48 52 12
1.1179 -0.361849 6.20944 109 116 82
1.18484 0.167969 6.0234 153 114 100
1.13131 -0.222219 6.19008 162 162 118
1.23982 0.0734445 6.04401 14 6 4
1.25393 0.439506 6.21155 63 21 14
1.25393 0.439506 6.21155 63 21 14
1.27252 0.375537 6.17649 114 90 87
1.27252 0.375537 6.17649 114 90 87
1.26143 -0.0658105 6.25361 49 56 43
1.40566 0.460593 6.38386 128 105 104
1.47862 0.0581014 6.13296 22 12 4
1.51646 0.0949165 6.10547 70 38 28
1.53435 0.105834 6.2377 70 46 37
1.56987 -0.029261 6.18751 184 149 148
1.60299 0.275491 5.92071 154 142 134
1.32102 -0.565453 6.42314 123 124 92
0.781518 -0.481244 5.99592 40 42 20
1.15649 0.295115 5.5421 68 60 42
1.15649 0.295115 5.5421 68 60 42
0.902267 -0.117601 6.14537 148 142 84
0.891461 -0.13395 6.17193 93 76 47
0.887912 -0.149758 6.18162 53 33 16
0.875278 -0.140252 6.22695 146 140 82
0.967835 0.0440459 6.09315 136 96 77
0.884891 -0.198946 6.26752 42 44 22
0.965275 -0.356549 6.13346 152 154 108
0.902919 -0.64612 6.34234 148 148 95
1.13697 0.139081 6.02539 66 26 15
1.13486 0.175275 6.04684 118 88 78
1.13956 0.175346 6.05036 45 11 4
1.25269 0.0307756 5.92839 54 60 47
1.24015 -0.045104 6.23041 128 128 126
1.36563 0.382145 6.21593 120 98 94
1.36521 0.382674 6.21729 120 98 94
1.39212 0.237994 6.13316 46 20 18
1.41592 0.444839 6.35431 78 46 44
1.43008 0.447885 6.39531 124 92 87
1.54135 -0.306042 6.12439 62 70 46
1.5838 -0.356533 6.08281 74 80 57
1.65239 -0.445449 6.10209 154 160 107
1.65791 -0.415985 6.08782 45 54 28
1.09051 0.231921 6.10709 107 68 50
1.18117 0.554506 6.28448 150 130 130
1.28572 0.505787 6.28703 72 28 20
1.69123 -0.448313 6.16053 70 72 52
0.688356 -0.568096 5.96453 39 46 26
0.69024 -0.568028 5.96225 39 46 26
0.908568 -0.173944 6.19922 44 40 20
1.03496 0.0284657 6.03945 135 119 103
1.18316 0.149247 5.65611 156 146 128
1.21812 0.140941 5.69926 21 32 14
1.36482 0.0669314 5.95572 21 8 4
1.20225 0.159804 5.68146 61 68 48
1.17458 -0.190048 6.05146 42 50 16
1.24508 0.0243901 5.94163 34 40 25
1.29848 0.0614661 6.01982 23 8 4
1.64583 -0.266078 6.32088 88 86 46
0.769593 -0.555757 5.85404 158 156 102
1.25048 0.152538 6.00468 80 31 16
0.842815 -0.23672 6.24169 151 150 92
1.07355 -0.430226 5.78602 152 152 99
0.931819 -0.379944 6.09846 64 68 37
1.12335 -0.368249 5.86523 73 79 30
1.04172 -0.286669 6.14233 53 59 24
1.12124 0.17916 6.06095 49 14 4
1.03804 -0.417297 6.22733 154 156 104
0.991187 -0.620597 6.35199 158 157 104
1.68557 -0.419897 6.08391 61 62 37
1.76561 -0.498283 6.0935 157 160 112
1.76743 -0.494803 6.08232 157 160 113
1.16385 0.253775 5.61597 61 65 44
0.960537 0.118647 6.13428 156 141 116
1.20327 0.157609 5.66877 118 122 104
1.21348 0.127696 5.69425 110 114 94
1.22304 0.125311 5.71338 18 27 11
1.23068 0.138216 5.70443 70 76 52
1.01056 0.269843 6.19399 145 132 108
1.14599 0.162751 5.89222 40 44 24
1.0288 0.248583 6.17936 72 30 12
1.02153 0.295686 6.22375 72 26 13
1.11432 0.143746 6.04131 54 16 6
1.10266 0.219262 6.10284 22 4 0
1.22914 0.0186127 5.7975 114 122 98
1.13138 -0.299598 5.97802 90 90 38
0.975184 -0.584816 6.31897 100 104 70
1.20841 0.0177322 5.88257 16 10 4
1.07356 0.421957 6.2836 69 20 13
1.22531 -0.323913 6.19927 158 159 114
1.22531 -0.323913 6.19927 158 159 114
1.35845 -0.220567 5.86952 56 60 44
1.36335 0.506726 6.36365 142 120 120
1.4751 -0.286063 5.76216 84 90 79
1.4059 -0.295593 6.11168 156 166 113
1.53574 -0.311809 5.62324 70 69 57
1.5413 -0.286024 5.61658 157 164 113
1.46627 0.311276 6.28735 46 15 10
1.44381 0.410889 6.49671 70 32 24
1.58739 -0.304648 5.52518 156 164 108
1.57939 -0.312241 5.57796 156 162 109
1.48569 -0.334055 6.16409 68 72 29
1.50984 -0.280468 6.11174 42 53 36
1.5277 -0.302456 6.12867 44 56 39
1.64657 -0.405627 6.06845 86 90 64
1.68482 -0.462865 6.09843 158 162 110
1.77795 -0.483979 6.07079 70 65 38
1.80099 -0.488044 6.07125 86 86 62
0.725115 -0.553556 5.9795 92 90 63
1.21134 0.156807 5.64729 110 108 86
1.17515 0.0931668 5.72181 156 146 123
0.902594 -0.114764 6.10917 92 64 40
0.957109 0.0257864 6.08434 137 100 78
0.890601 -0.146827 6.16501 93 74 48
0.865115 -0.145485 6.28116 51 32 15
1.14466 0.0984044 6.01751 43 17 7
1.17547 0.137562 6.01335 79 28 8
1.2382 0.0218567 5.87043 46 52 32
0.810106 -0.780644 6.47976 72 80 38
0.8139 -0.778121 6.47705 72 80 38
1.18719 0.167503 6.01802 164 116 102
1.00611 -0.481554 6.2317 152 152 100
1.10419 -0.23344 6.12548 44 54 20
0.981767 -0.57967 6.30311 91 98 66
1.16057 -0.187958 6.11873 42 50 18
1.29175 0.0340026 5.98454 8 5 4
1.27436 0.281531 6.10017 54 17 8
1.25917 0.443276 6.21364 44 16 9
1.29979 0.0451693 6.01974 99 82 70
1.27327 0.374385 6.17229 120 94 90
1.273 0.374423 6.17315 120 94 90
1.27582 0.444373 6.22485 58 19 12
1.25811 -0.0373601 6.20768 56 68 54
1.3758 -0.198347 5.93145 92 100 90
1.32275 0.485527 6.31711 60 22 19
1.32321 0.492746 6.32106 56 20 17
1.37671 0.326422 6.17443 120 102 100
1.41079 0.4442 6.34436 126 100 99
1.32675 -0.387927 6.31125 50 64 30
1.43632 0.445451 6.40472 73 40 36
1.43306 0.461703 6.45325 76 48 42
1.43362 0.45095 6.44731 126 98 89
1.43277 0.45162 6.45311 126 98 89
1.43361 0.454733 6.47576 57 28 20
1.35966 -0.867806 6.48269 157 160 110
1.52518 -0.308021 6.09744 82 89 68
1.56465 -0.057035 6.17821 141 98 74
1.54889 -0.380072 6.14958 70 73 32
1.52158 -0.729857 6.32488 61 82 46
1.67864 -0.422415 6.07768 82 85 61
1.6866 -0.418893 6.08019 55 60 33
1.73825 -0.480772 6.0932 68 67 37
1.77569 -0.484617 6.08128 69 68 46
1.77569 -0.484617 6.08128 69 68 46
1.79095 -0.492857 6.0626 64 62 32
1.80002 -0.489225 6.07831 80 78 56
1.81071 -0.511453 6.0546 154 162 110
1.17011 0.288432 5.54638 165 155 143
1.29261 0.105921 6.00638 93 66 54
1.30594 0.503158 6.26579 128 91 84
1.14481 0.0639082 6.05577 10 6 4
1.157 0.391144 6.2048 133 96 88
1.58415 -0.0651095 5.48593 91 93 66
1.32385 -0.376553 6.31629 52 65 30
1.44522 0.381119 6.33977 38 8 4
1.44522 0.381119 6.33977 38 8 4
1.07751 0.0627995 5.79301 162 150 126
1.07847 -0.414805 5.77242 148 148 96
1.09077 -0.420759 5.76406 152 152 100
1.18852 0.0852201 5.72452 64 67 34
1.14339 -0.00507334 5.84285 77 52 28
1.21546 0.0700337 5.80479 22 31 14
1.17061 -0.120261 5.93921 101 102 70
1.14841 0.39567 6.2079 59 13 6
1.15591 0.492307 6.29587 56 18 12
1.24234 0.501351 6.27627 91 37 20
1.51258 -0.730648 6.31443 155 158 108
1.18129 0.115674 5.69442 156 147 123
1.12443 0.219142 6.07599 20 6 3
1.2566 -0.237666 5.76679 49 62 32
1.14312 0.251568 6.09723 119 84 74
1.42903 -0.24786 5.80518 94 100 93
1.68174 -0.261231 5.39147 58 63 28
0.907269 0.0246589 5.75099 52 55 31
1.07456 0.0514703 5.92216 95 59 35
0.982635 -0.342525 6.10215 72 76 42
1.0435 0.212482 6.14011 69 30 16
1.02676 0.258785 6.20042 81 37 22
1.22391 0.0193204 5.80149 112 118 95
0.990831 -0.329371 6.13496 66 70 40
1.12934 0.127506 5.99936 162 107 76
1.22664 0.0248884 5.82093 16 9 7
1.06722 0.293187 6.16787 65 24 16
1.04597 0.372141 6.25741 95 48 28
0.936738 -0.602473 6.30143 148 148 96
0.947872 -0.570795 6.29901 148 149 96
1.12401 -0.358797 6.19444 106 113 77
1.22711 -0.180628 6.05436 116 110 66
1.25559 0.444753 6.22066 50 17 12
1.41264 -0.280312 5.73842 152 154 116
1.41766 -0.285436 5.73602 90 86 58
1.46358 -0.306579 5.67463 156 157 108
1.49149 -0.31533 5.63767 157 158 113
1.50564 -0.320578 5.6173 154 156 110
1.52174 -0.318597 5.60129 74 68 44
1.53613 -0.327191 5.57435 150 154 106
1.53774 -0.318794 5.57516 79 74 48
1.54342 -0.326166 5.56317 89 87 50
1.37995 -0.289509 6.03194 42 50 19
1.34119 -0.430654 6.19894 100 111 72
1.31859 -0.440199 6.345 45 62 26
1.4684 -0.640845 6.24751 52 66 21
1.68345 -0.444723 6.08113 64 64 36
1.84033 -0.522795 6.04694 79 86 51
1.90637 -0.445991 5.64591 157 161 108
0.931169 -0.0958955 6.21387 149 148 88
0.960559 -0.0920937 6.15088 149 148 88
0.888483 -0.212992 6.26103 150 151 92
1.13259 0.17563 6.05076 122 96 86
1.68857 -0.262517 5.3986 144 150 102
1.75126 -0.0185266 4.98551 40 36 17
1.25505 -0.537392 6.41586 69 53 26
1.20333 0.145922 5.66453 62 70 44
0.726718 -0.47252 6.12846 44 47 24
0.726718 -0.47252 6.12846 44 47 24
1.19269 0.124509 5.68679 61 65 34
1.196 0.0859247 5.72188 60 64 30
0.891689 -0.153313 6.15039 76 54 28
0.889326 -0.132289 6.1719 80 63 27
1.12145 0.118455 6.00764 106 60 28
1.09933 0.188996 6.10189 58 21 14
0.897507 -0.649795 6.35001 146 144 90
0.9243 -0.61048 6.31713 146 145 88
1.28986 0.164001 6.02568 87 54 52
1.30419 0.12659 5.99952 80 40 22
1.28792 0.241237 6.08303 40 13 8
1.24362 -0.129999 6.08195 34 38 23
1.37761 0.244903 6.12455 40 15 11
1.36787 0.334743 6.17894 44 13 6
1.35295 0.445633 6.26328 120 99 96
1.46694 0.10762 5.96604 36 34 14
1.39971 0.481952 6.37449 68 50 46
1.43388 0.44686 6.41133 68 38 33
1.5012 -0.7213 6.31219 157 161 114
1.80726 -0.490755 6.0774 78 81 50
1.20094 0.178539 5.6312 64 71 44
1.27135 0.0621754 5.99055 16 10 5
1.29491 0.0476382 5.9958 86 68 56
1.2897 0.282528 6.10839 51 20 15
1.2669 0.41243 6.19424 114 57 35
1.58325 -0.283041 5.51166 64 62 39
1.30575 0.507328 6.29035 76 32 20
1.41099 0.112756 5.99028 150 104 82
1.38362 0.280834 6.14695 123 95 89
1.43929 0.108811 5.98547 82 49 31
1.39172 0.477036 6.32388 132 107 103
1.37959 0.484951 6.35651 132 107 103
0.933773 0.150651 6.22676 74 42 16
1.15482 -0.153036 6.00598 146 144 100
1.16369 -0.158279 6.00555 54 56 26
1.22976 -0.131106 5.93529 92 95 55
1.40258 0.161283 6.07492 114 92 86
1.1767 0.236914 5.58786 60 68 40
1.18171 0.236286 5.58199 60 68 40
0.729206 -0.554151 5.98974 157 156 105
1.22006 0.122323 5.69979 39 52 27
1.08172 0.15003 6.04396 58 21 11
1.04677 -0.328544 6.0459 152 150 96
1.04557 0.337169 6.22795 145 132 110
1.19014 0.178337 5.97822 66 28 16
1.07299 0.339314 6.21779 52 16 5
1.15672 0.266656 6.11391 16 6 5
1.08256 0.426505 6.28559 74 27 16
1.08391 0.466012 6.30345 134 106 93
0.929603 -0.609024 6.31252 146 146 91
1.03871 -0.415234 6.22312 152 152 102
1.30699 0.0678229 5.98605 14 6 2
1.22336 -0.0941854 6.15297 104 102 88
1.3556 -0.3964 6.14403 82 96 50
1.80551 -0.487945 6.08535 160 164 114
1.18071 0.190553 5.62893 62 67 36
1.24008 0.222013 5.6406 50 51 26
1.21436 0.146509 5.69796 28 30 14
1.23717 0.151364 5.69496 39 46 24
0.934934 -0.186423 6.25672 49 47 8
1.07115 -0.499181 6.27485 55 76 32
1.55557 -0.332935 6.08894 70 76 52
1.78151 -0.497918 6.07716 154 160 112
1.81991 -0.520792 6.0482 158 162 112
1.84032 -0.521055 6.04397 76 85 52
0.818919 0.690547 7.77137 56 26 22
1.79528 -0.498173 6.05508 158 160 110
1.84051 -0.520962 6.04223 78 86 56
1.23455 0.0595258 5.73633 110 110 82
0.742563 -0.2452 6.20752 154 148 92
0.780614 -0.247532 6.18967 154 150 94
1.06545 -0.0978981 5.96665 151 146 84
1.04592 0.137733 6.05385 162 143 126
1.08604 0.116685 6.01155 102 59 35
1.00339 0.208212 6.14736 158 145 126
1.13888 -0.346864 5.89171 72 80 28
0.89728 -0.231626 6.18912 150 146 92
0.89728 -0.231626 6.18912 150 146 92
1.00035 0.0283616 6.12394 53 36 11
1.12545 0.145246 6.04146 62 18 2
0.999491 0.0975066 6.1833 150 127 112
1.09474 0.109471 6.0811 47 24 10
1.05122 0.289607 6.17385 148 136 116
1.1311 0.218421 6.06671 46 13 3
1.15914 -0.143475 5.98953 92 93 62
1.14432 0.252652 6.09831 108 72 62
1.15761 0.22532 6.08076 30 10 4
1.11259 0.282918 6.15349 64 29 20
1.17376 0.303298 6.13641 31 6 0
1.17376 0.303298 6.13641 31 6 0
1.2727 0.141577 5.98436 162 111 84
1.05832 0.496123 6.35495 138 109 100
1.15044 -0.126469 6.10506 80 82 50
1.41379 -0.284299 5.73198 102 98 55
1.15711 0.432714 6.22084 72 23 12
1.14894 0.46359 6.25951 56 18 10
0.908718 -0.669899 6.33614 148 147 94
1.17178 0.455453 6.24601 116 74 68
1.17171 0.486391 6.27344 55 17 10
1.28963 0.0576047 6.03411 15 6 0
1.28343 0.377381 6.17061 48 11 5
1.22415 0.527527 6.29833 97 46 27
1.27319 0.504305 6.27017 75 30 20
1.25014 -0.04378 6.21515 84 86 77
1.30249 0.527203 6.30099 102 64 50
1.41062 0.158277 6.06087 91 70 56
1.60333 0.237836 5.88908 127 87 35
1.40399 -0.202669 6.13892 78 82 65
1.4044 -0.202689 6.13818 78 82 65
1.46705 0.225648 6.21673 34 8 5
1.57714 -0.358985 6.09721 75 83 60
1.76284 -0.486525 6.09056 64 64 34
1.05322 0.171978 6.07903 158 146 121
1.1498 0.179807 6.04543 25 6 2
1.37432 -0.253816 5.80648 79 72 53
1.46852 -0.3177 5.78701 154 156 103
1.45466 -0.306359 5.82184 154 156 106
1.37164 -0.232043 6.01275 77 88 67
1.36421 -0.225822 6.04247 156 160 108
1.41838 0.471048 6.4458 130 110 107
0.83698 -0.199112 6.22752 44 42 18
0.775933 -0.123694 6.34351 148 143 82
1.22251 0.0789452 6.02114 18 8 4
1.37321 -0.171218 6.14154 86 88 74
1.19763 -0.15876 6.545 72 50 32
1.33666 -0.697891 6.4704 57 72 34
1.33666 -0.697891 6.4704 57 72 34
1.16597 -0.225204 6.466 98 97 64
0.691457 -0.240893 6.23078 150 145 91
0.895882 -0.116659 6.11851 74 46 20
1.29244 0.0497627 5.98032 10 5 3
1.33114 0.120394 6.00061 110 64 35
1.20968 0.509342 6.28553 95 38 23
1.2981 -0.151644 6.18606 66 67 42
1.37219 -0.171451 6.14331 79 80 61
1.3773 -0.243265 6.19334 90 88 68
1.42441 0.435464 6.30791 64 28 26
1.39761 0.477604 6.36635 110 91 87
1.41429 0.45641 6.39155 130 112 114
1.4562 0.425566 6.45366 122 96 90
0.871659 -0.139998 6.20259 74 60 30
1.2426 -0.115514 5.92394 108 112 74
1.17745 -0.436397 6.09709 106 114 80
1.49528 -0.28417 6.10952 85 90 70
1.69224 -0.472297 6.11538 154 160 113
1.21943 0.132743 5.69653 107 110 88
0.894805 -0.11977 6.15366 154 146 86
1.08108 0.0885632 6.01038 88 54 20
1.10262 0.141373 6.04573 84 40 20
1.0368 0.21609 6.15051 74 34 16
1.12664 0.178213 6.04979 54 18 8
1.14995 0.17938 6.04405 32 10 4
1.14154 0.333369 6.16127 60 19 14
1.1573 0.397831 6.21019 117 89 82
1.1573 0.397831 6.21019 117 89 82
1.15538 0.459321 6.26766 130 98 89
1.13558 0.531694 6.33124 144 116 110
1.29448 0.193839 6.04436 42 14 10
1.35733 -0.174338 5.96975 82 92 76
1.45169 -0.264691 5.80798 96 104 95
1.49611 -0.316816 5.73467 150 154 114
1.40706 0.134065 6.05994 125 96 84
1.41159 0.163473 6.07881 26 10 8
1.33862 0.508421 6.35127 64 30 26
1.37982 -0.215038 6.15349 80 82 53
1.40948 0.444782 6.34819 129 103 102
1.41904 0.464229 6.40962 66 42 38
1.60779 -0.390919 6.09005 59 63 33
1.69065 -0.439853 6.07452 73 73 53
1.75817 -0.478733 6.06662 156 162 108
1.81567 -0.516067 6.05422 86 88 48
1.83887 -0.523041 6.05124 78 88 52
1.29057 0.281386 6.1043 52 22 18
1.18769 0.208464 5.6083 54 64 34
1.18769 0.208464 5.6083 54 64 34
0.730812 0.0510013 6.21277 104 100 46
0.697622 -0.226738 6.24714 72 67 27
1.11052 0.115918 6.05669 174 124 94
0.937295 -0.185605 6.25248 49 48 8
1.27659 0.362643 6.15986 128 102 98
1.34224 0.51151 6.30939 88 52 42
1.61373 -0.365854 6.10145 46 56 32
0.95093 0.044318 5.67378 123 122 75
0.993654 0.00519545 5.77758 144 140 84
1.03093 0.0479141 5.81945 98 95 38
0.840263 -0.453095 6.05909 48 51 20
0.887219 -0.150384 6.18192 44 26 7
0.895365 -0.0135121 6.24246 74 57 27
1.10437 -0.399992 5.82535 157 160 110
1.06096 0.482132 6.36376 75 35 17
0.892734 -0.681297 6.36461 77 78 44
1.14245 0.401223 6.22477 60 16 8
1.02799 -0.577824 6.32503 160 162 106
1.15969 -0.281083 6.18139 118 122 84
1.26183 0.428669 6.21137 72 26 15
1.52546 0.397405 6.29935 147 140 135
1.51854 -0.365559 6.15361 152 162 114
1.73799 -0.47899 6.08844 68 67 35
0.853177 0.14223 6.38501 120 86 76
