ply
format ascii 1.0
element vertex 1276
property float x
property float y
property float z
property uchar red
property uchar green
property uchar blue
end_header
1.2224 1.8021 4.95531 96 72 44
1.15838 1.89294 4.75122 72 44 18
1.17727 2.07103 4.65038 105 82 58
1.1658 1.9373 4.66329 100 72 44
1.18539 1.91966 4.67657 98 70 42
1.2235 1.86717 4.76382 82 54 29
1.21175 1.9678 4.64198 170 150 122
1.22778 1.994 4.65582 122 98 70
1.26349 1.81995 4.79465 143 116 90
1.25251 2.06364 4.62611 146 122 92
1.24859 1.96735 4.65287 126 108 83
1.27897 2.17922 4.59896 203 191 168
1.2556 1.9818 4.65092 124 107 81
1.27324 2.07313 4.63168 128 105 80
1.25433 1.95243 4.65411 120 100 76
1.27271 1.96874 4.63524 184 169 146
1.27732 2.00191 4.62446 183 170 148
1.2891 1.99446 4.64569 147 132 108
1.29126 1.92349 4.67106 176 154 128
1.34871 1.8034 4.85049 111 88 61
1.29294 1.88805 4.68905 139 112 84
1.29818 2.01899 4.62689 168 155 132
1.29824 1.92951 4.65416 123 102 75
1.32837 2.13063 4.60665 150 134 108
1.30847 1.86253 4.70417 146 118 90
1.32106 1.84673 4.731 87 57 29
1.34971 2.17288 4.61667 200 190 168
1.37 1.80954 4.83715 105 80 48
1.33816 2.0703 4.63232 194 182 157
1.32808 1.90004 4.69291 176 152 126
1.34207 1.92269 4.66562 120 95 68
1.47114 1.90583 4.72285 164 140 106
-1.5851 0.0767609 5.02304 133 126 115
-1.38013 0.429619 5.09302 109 82 48
-1.15672 1.40438 4.86555 68 34 4
-1.12123 1.39954 4.90086 66 32 2
-1.08776 1.39635 4.91809 66 34 2
-1.08303 1.40918 4.91939 112 82 48
-1.07146 1.36895 5.28272 144 116 88
-1.01193 1.30562 4.99141 140 112 83
-0.947748 1.27056 5.02078 146 120 94
-0.893646 1.02351 5.2405 128 2 21
-0.893646 1.02351 5.2405 128 2 21
-0.788505 1.0838 5.07428 160 135 110
-0.825971 0.735806 5.03997 161 150 139
-1.02613 -0.160221 4.93465 181 168 154
-0.685669 1.24419 5.00469 120 100 77
-0.676947 1.13641 4.8686 121 97 74
-0.526616 1.49795 4.92618 176 150 122
-0.476398 1.64399 4.91447 104 80 52
-0.403931 2.42025 4.18434 62 35 10
-0.472085 1.51802 4.91801 106 85 56
-0.43529 1.52304 4.90953 150 128 97
-0.78667 -0.816411 5.89941 173 164 156
-0.415701 1.31943 4.91882 96 66 34
-0.403973 1.24592 4.93652 80 56 37
-0.335742 1.52654 4.89884 90 66 39
-0.375971 1.32527 4.91786 98 70 42
-0.331704 1.26886 4.91542 172 154 130
-0.214122 2.48555 3.99932 144 124 98
-0.242719 1.41582 4.91728 160 140 110
-0.360574 0.734074 4.98279 136 113 104
-0.167576 1.5713 4.90341 164 146 117
-0.125776 1.64173 4.901 168 146 119
-0.330285 0.712951 4.89092 145 122 116
-0.125036 1.59017 4.90285 178 157 129
-0.130631 1.42792 4.911 112 91 64
-0.130631 1.42792 4.911 112 91 64
-0.10408 1.39502 4.91521 172 150 119
0.0120096 1.72689 4.89335 102 78 50
-0.175211 0.797185 4.9912 144 116 134
-0.0712961 1.16073 4.96359 150 122 94
-0.0308858 1.30605 4.96385 109 90 65
0.147835 1.99906 5.0096 91 66 32
0.0185222 1.44304 4.95629 122 102 77
0.000143792 1.26627 4.96506 163 138 107
-0.0688285 0.874512 5.00408 158 106 110
1.03476 1.99635 4.76853 103 80 56
1.11657 2.24202 4.64982 184 170 148
-1.31239 1.86474 5.71212 145 123 100
0.17713 1.99164 6.67867 88 60 30
-0.702808 -0.0514161 3.56893 140 123 102
-0.706364 -0.820047 5.70299 134 122 114
-0.422308 -1.37534 8.75134 202 192 182
0.669533 2.70585 12.2132 138 108 78
-1.02372 0.178786 6.76416 152 128 102
-0.331572 -0.29431 9.01761 114 92 69
-0.362566 0.322244 4.23721 99 76 54
-0.308964 1.00246 4.35064 61 32 24
-0.552691 0.539147 3.6934 164 144 131
-2.45945 -1.53003 5.04205 218 219 216
-2.45085 -1.52946 5.04307 152 152 150
-2.41172 -1.59577 5.06162 206 208 205
-1.62789 0.738249 5.05078 110 100 95
-1.56922 0.60817 4.99675 121 115 108
-1.51019 0.492364 5.01574 192 174 151
-1.46286 0.525455 5.01778 162 150 139
-1.46286 0.525455 5.01778 162 150 139
-1.44871 0.450232 5.04481 168 141 114
-1.43286 0.463825 5.06516 102 74 46
-1.44421 0.41395 5.06677 176 154 126
-1.37601 0.511354 5.09931 150 134 112
-1.4143 0.37787 5.11846 184 166 144
-1.41995 0.354259 5.13159 168 146 124
-1.10758 1.29984 4.96183 138 110 82
-1.08217 1.27249 4.99503 68 38 12
-1.36515 0.363073 5.08621 101 84 67
-1.08658 1.23938 5.02229 147 120 97
-1.36856 0.305287 5.04448 175 167 151
-1.28074 0.566202 5.13447 100 92 84
-1.06688 1.21845 5.03751 92 64 40
-0.532107 2.56323 4.15968 104 86 62
-0.532107 2.56323 4.15968 104 86 62
-1.23274 0.618403 5.1221 180 174 160
-1.01318 1.23345 5.02004 90 62 36
-1.30069 0.164026 4.93904 186 168 146
-1.25377 0.258569 4.91179 162 149 126
-1.31655 0.0733574 4.9975 128 112 90
-1.26191 0.215476 4.89862 191 174 152
-1.19261 0.444184 4.9481 192 180 158
-0.492486 2.47654 4.18731 130 102 78
-0.943298 1.25572 5.04217 76 47 20
-0.928855 1.29622 5.05209 88 62 32
-0.928855 1.29622 5.05209 88 62 32
-0.510977 2.42418 4.33579 87 62 38
-0.881394 1.47017 5.14579 95 74 50
-1.24964 0.195089 4.90995 183 168 144
-1.23565 0.210474 4.88963 149 132 110
-1.03324 0.976115 5.30724 202 198 232
-0.455741 2.48753 4.14224 84 56 29
-0.478416 2.43485 4.25912 74 49 24
-1.16463 0.386243 4.89805 180 164 146
-0.890777 1.27875 5.07251 92 63 34
-1.28999 -0.0406548 5.0535 120 102 82
-1.06769 0.65665 5.03335 110 94 76
-1.34274 -0.177804 5.25238 180 164 146
-0.49847 2.35014 4.51241 82 55 27
-0.446262 2.42604 4.23904 78 52 26
-0.411841 2.4939 4.0857 100 72 46
-1.18694 0.187852 4.86561 190 174 152
-1.08931 0.451875 4.88871 180 166 147
-1.06376 0.54434 4.94759 172 156 140
-0.868348 1.21343 5.09802 64 32 8
-0.447386 2.37242 4.34895 78 49 22
-1.012 0.721414 5.05775 152 140 124
-0.846602 1.2356 5.09506 132 102 74
-0.436777 2.36632 4.34068 121 92 65
-0.837681 1.25101 5.10064 71 44 16
-0.863512 1.1652 5.11533 131 110 88
-1.23653 -0.0704819 5.02731 125 106 85
-0.868355 1.15521 5.15387 85 63 39
-0.448044 2.33689 4.44428 125 94 66
-0.424527 2.36577 4.33756 78 48 20
-0.810073 1.2954 5.09796 156 136 112
-1.09308 0.296867 4.83233 180 164 144
-1.17413 0.0480971 4.89638 200 182 160
-0.435055 2.3342 4.44555 77 46 18
-0.829643 1.20197 5.0969 156 134 111
-1.02161 0.533729 4.92212 187 174 158
-0.345319 2.5095 4.02922 105 86 64
-1.10089 0.244431 4.83158 144 128 106
-0.422415 2.33253 4.43559 116 87 58
-1.12108 0.14432 4.84036 188 168 147
-1.12108 0.14432 4.84036 188 168 147
-0.410516 2.34345 4.40611 118 86 60
-0.954307 0.721995 5.03721 174 164 148
-0.422007 2.31149 4.50366 83 52 24
-0.409134 2.33061 4.43901 69 36 10
-0.899704 0.912855 5.20862 126 4 24
-0.358633 2.42325 4.14768 72 44 18
-0.605081 1.78229 4.95296 166 145 118
-1.09118 0.177101 4.81749 194 178 156
-0.41452 2.30064 4.52411 122 93 64
-0.357555 2.41058 4.18842 80 54 26
-0.685506 1.50773 4.97575 174 148 116
-0.398372 2.31992 4.43511 122 92 63
-1.16435 -0.0504331 4.95163 198 182 160
-0.9863 0.511785 4.91288 170 158 146
-0.331643 2.45153 4.08291 84 57 31
-0.404509 2.30325 4.51468 70 36 9
-0.360442 2.3801 4.23833 67 38 14
-0.808632 1.10592 5.09267 162 138 112
-0.808632 1.10592 5.09267 162 138 112
-0.307728 2.5032 4.03514 107 88 66
-0.848359 0.996247 5.20153 194 162 193
-1.00948 0.40192 4.8556 194 183 166
-0.994178 0.451479 4.86856 116 104 88
-0.685941 1.47157 4.98229 164 140 109
-0.368555 2.35239 4.3137 124 92 66
-0.356529 2.36581 4.25429 118 89 64
-0.487442 2.06578 4.98048 93 70 40
-0.350173 2.363 4.27233 66 34 7
-0.286525 2.51222 4.00505 156 134 106
-1.11735 -0.00410496 4.88229 186 167 146
-1.13082 -0.0449307 4.92002 122 104 84
-0.415379 2.24258 4.84348 109 74 40
-0.353243 2.33398 4.37767 116 86 58
-1.0994 0.0147293 4.86388 118 96 76
-0.34391 2.34993 4.31396 62 34 8
-0.251064 2.58013 3.95008 129 102 76
-0.251064 2.58013 3.95008 129 102 76
-1.08649 0.0493936 4.84943 184 168 144
-0.997461 0.32782 4.83207 172 158 142
-0.327263 2.37509 4.22038 116 90 62
-0.533592 1.84156 4.94305 110 89 60
-0.683915 1.35824 5.00107 156 134 105
-0.329714 2.36047 4.24561 112 82 54
-0.329714 2.36047 4.24561 112 82 54
-0.356844 2.3033 4.47358 117 86 58
-0.350605 2.31076 4.44888 118 88 58
-0.307337 2.39039 4.15735 134 108 84
-0.928429 0.506801 4.89181 172 164 151
-0.303059 2.38043 4.20161 74 46 20
-0.771629 1.0285 5.1735 142 118 100
-1.56276 -1.28329 6.57735 182 182 178
-0.327338 2.32516 4.40955 76 44 15
-0.453047 2.01213 4.95987 152 130 102
-0.267779 2.4538 4.03514 83 56 30
-0.306399 2.36613 4.26166 124 95 70
-0.876176 0.64185 4.98074 106 94 82
-0.581914 1.57483 4.93719 96 70 38
-0.478697 1.90636 4.95037 154 132 104
-0.524221 1.74128 4.93733 162 138 110
-0.524221 1.74128 4.93733 162 138 110
-0.304134 2.33985 4.26192 123 94 68
-0.828694 0.775501 5.08573 90 72 62
-0.675893 1.25023 5.00454 167 146 124
-0.294282 2.35592 4.25372 110 84 56
-0.328986 2.28604 4.53331 64 30 2
-0.480267 1.86014 4.93684 158 134 105
-0.787516 0.889852 5.13663 130 14 40
-0.768051 0.953824 5.16086 194 160 186
-0.470058 1.87061 4.92899 124 100 72
-0.267793 2.39602 4.1393 64 36 12
-0.582311 1.50219 4.94573 150 124 96
-0.500002 1.75732 4.92057 120 97 66
-0.355959 2.23032 5.024 72 48 20
-1.04374 -0.0246881 4.84832 184 166 144
-0.254391 2.38418 4.15408 118 94 68
-0.253946 2.36974 4.20728 64 34 8
-0.253946 2.36974 4.20728 64 34 8
-0.398293 1.99961 4.95338 111 89 59
-0.510664 1.61067 4.91652 96 72 41
-0.229768 2.39237 4.12917 72 44 18
-0.629809 1.19967 4.87589 123 106 93
-0.245256 2.34191 4.28129 76 44 18
-0.496619 1.59541 4.91397 165 139 110
-0.536728 1.4343 4.93324 158 132 99
-0.55666 1.3642 4.93711 164 136 106
-0.189586 2.42352 4.06505 68 37 10
-0.223936 2.33642 4.32446 106 74 44
-0.200099 2.38555 4.13208 127 98 73
-0.194491 2.39775 4.09105 123 93 68
-0.232765 2.31637 4.57235 62 31 2
-0.180436 2.41904 4.04933 126 94 69
-0.185015 2.40667 4.07252 122 91 63
-0.185015 2.40667 4.07252 122 91 63
-0.370917 1.88984 4.9263 152 131 101
-0.463158 1.58716 4.90915 148 120 91
-0.276465 2.18891 5.00718 138 114 86
-0.495746 1.45533 4.93134 160 130 99
-0.166213 2.4153 4.07211 78 46 20
-0.463008 1.51979 4.91929 164 144 114
-0.813494 0.333877 4.41452 182 165 146
-0.184648 2.3376 4.35416 116 84 54
-0.472746 1.44977 4.91957 161 134 99
-0.637107 0.927413 4.99068 77 22 37
-0.427692 1.5663 4.90124 146 117 88
-0.158025 2.36582 4.2289 62 28 3
-0.634175 0.704168 2.43642 89 57 26
-0.135192 2.40304 4.11021 70 34 8
-0.497353 1.28139 4.92941 96 66 38
-0.137883 2.37823 4.13765 69 34 7
-0.503964 1.25342 4.93297 150 125 102
-0.620521 0.863615 5.09154 162 144 180
-0.50685 1.19193 4.79584 82 58 49
-0.363363 1.6491 4.9152 114 90 60
-0.382336 1.56425 4.91272 98 72 45
-0.71875 0.449463 4.40686 134 122 102
-0.078052 2.47602 3.98173 93 66 38
-0.0773836 2.41578 4.06451 70 36 8
-0.770326 0.208424 4.32812 190 175 154
-0.141306 2.23395 5.02423 86 63 34
-0.0434879 2.51411 3.9502 104 76 48
-0.692996 0.415786 4.34981 184 172 152
-0.408108 1.33375 4.9183 158 129 96
-0.408108 1.33375 4.9183 158 129 96
-0.334593 1.56716 4.9936 100 76 46
-0.361045 1.48566 4.93284 109 84 56
-0.438246 1.23095 4.92563 72 46 28
-0.0453271 2.45238 4.01936 72 41 14
-0.021708 2.51881 3.94382 96 66 34
-0.0309093 2.4825 3.96253 100 72 46
-0.0499579 2.41607 4.09234 66 31 3
-0.0604357 2.38257 4.20853 70 38 7
-0.0491734 2.39326 4.14522 74 40 13
-0.0194618 2.47396 3.95665 146 120 96
-0.30087 1.5542 4.90348 156 130 100
-0.7048 0.264387 4.29244 182 167 146
-0.215747 1.82114 4.91141 117 96 67
-0.0348024 2.3957 4.33173 62 28 2
-0.152125 2.01215 4.95227 90 69 41
-0.29905 1.53429 4.91361 100 72 40
-0.645247 0.424044 4.33187 182 169 148
-0.0180899 2.41704 4.09951 125 96 67
0.00204762 2.47664 3.9714 133 106 78
0.00204762 2.47664 3.9714 133 106 78
-0.774039 0.000288461 4.36422 138 122 98
-0.631588 0.448561 4.36341 188 180 158
0.0100538 2.48841 3.96165 134 108 82
-0.271814 1.57481 4.92226 116 92 64
-0.293736 1.48983 4.90985 120 90 58
-0.293736 1.48983 4.90985 120 90 58
-0.627925 0.42018 4.32748 179 165 144
0.029489 2.50405 3.96149 90 62 38
-0.368503 1.21573 4.91347 134 118 104
0.0253036 2.48504 3.96118 135 105 78
-0.729185 0.0713275 4.29816 136 113 92
0.0248774 2.47603 3.97961 130 100 73
-0.240227 1.62011 4.90027 102 78 47
-0.656201 0.300067 4.28403 113 92 72
-0.655566 0.271085 4.27961 130 112 92
-0.629853 0.343412 4.29035 110 92 72
-0.725748 0.0290514 4.30913 128 106 83
-0.0359339 2.19791 5.01561 144 119 88
-0.66745 0.206184 4.25974 194 178 158
-0.673698 0.174476 4.256 186 176 154
-0.267536 1.43472 4.9709 176 158 132
-0.330032 1.23169 4.93401 74 59 40
-0.585474 0.442431 4.34899 206 198 182
-0.215375 1.59296 4.9114 102 80 52
-0.655856 0.218844 4.25965 199 183 162
0.0579709 2.48244 3.98779 114 82 52
0.0579709 2.48244 3.98779 114 82 52
-0.246366 1.44619 4.91203 174 152 124
0.0744532 2.50051 3.97772 118 86 56
-0.684995 0.0687362 4.25435 185 167 144
-0.656019 0.144501 4.24945 180 165 144
-0.502572 0.605139 4.4542 156 140 122
-0.196149 1.55304 4.90241 82 60 32
-0.577291 0.368102 4.29203 182 170 149
0.0885989 2.4853 4.06534 66 30 2
-0.673707 0.0505268 4.25457 190 171 148
-0.0457438 1.99699 4.93859 152 126 96
-0.604762 0.262374 4.25466 128 112 92
-0.146195 1.67242 4.90029 170 148 118
-0.0966462 1.80716 4.90101 158 130 98
-0.612938 0.204233 4.22595 189 174 153
-0.134035 1.67101 4.90182 123 100 70
0.128247 2.56823 3.95065 90 61 36
-0.670995 0.00929585 4.25215 139 119 96
0.126094 2.53178 3.96312 138 106 80
-0.209197 1.38766 4.92435 116 94 64
-0.707576 -0.144621 4.31966 140 124 100
-0.720526 -0.191062 4.35957 189 173 149
-0.512433 0.465213 4.32509 170 155 132
-0.565481 0.299267 4.25012 170 154 132
-0.0916562 1.72609 4.9006 172 149 116
-0.489891 0.495963 4.34848 98 78 56
-0.489891 0.495963 4.34848 98 78 56
-0.588593 0.188007 4.21677 132 114 94
-0.538951 0.332696 4.26516 186 172 153
-0.179359 1.40425 4.91071 126 101 71
-0.47548 0.517161 4.36621 154 136 116
-0.47548 0.517161 4.36621 154 136 116
-0.541622 0.317467 4.25782 176 160 142
-0.564892 0.24468 4.22866 92 71 48
0.153409 2.53535 4.03467 72 36 6
0.153409 2.53535 4.03467 72 36 6
0.00378848 1.96754 4.94098 153 134 105
-0.477917 0.490365 4.34185 151 133 111
-0.538576 0.302429 4.24878 172 156 134
-0.0993161 1.61842 4.90748 175 154 126
-0.0187576 1.87176 4.91509 162 140 110
-0.492626 0.433839 4.3038 158 137 118
-0.159394 1.42581 4.91414 166 142 113
0.166447 2.54566 3.99321 77 45 14
-0.119965 1.54139 4.90963 117 92 66
0.184183 2.59514 3.93704 135 110 84
-0.534408 0.287711 4.24275 105 89 68
-0.534408 0.287711 4.24275 105 89 68
-0.809867 -0.718771 5.53226 132 122 114
-0.451735 0.521686 4.36569 110 94 70
0.175801 2.53528 4.07939 70 36 6
-0.510119 0.341332 4.28003 114 102 86
-0.621531 -0.0160375 4.22656 186 167 144
-0.119706 1.48633 4.91804 112 90 62
0.197296 2.5995 3.94485 87 59 34
0.237663 2.71084 3.91886 100 74 44
-0.116868 1.47075 4.91918 118 94 68
-0.208577 1.17839 4.93714 70 52 42
-0.524704 0.251096 4.22037 118 102 82
-0.180656 1.24906 4.92707 111 86 60
-0.295774 0.868398 4.9083 44 2 14
0.217315 2.6018 3.95289 84 54 24
-0.542647 0.167651 4.19696 116 97 75
-0.690028 -0.324066 4.40877 108 93 82
0.251079 2.70854 3.92162 170 152 126
-0.0372917 1.67129 4.90464 166 147 118
-0.607705 -0.0722688 4.23084 128 108 84
-0.384447 0.60322 4.44105 160 144 124
-0.0939016 1.44393 4.92485 102 76 46
-0.474234 0.323246 4.24834 166 150 130
-0.59734 -0.0685497 4.22439 175 158 134
-0.123358 1.32085 4.91307 167 143 115
-0.088042 1.42774 4.92439 164 136 104
-0.373686 0.593923 4.44635 107 89 68
-0.474319 0.305885 4.23401 93 72 56
-0.584723 -0.0569703 4.20547 192 175 151
0.000476932 1.68223 4.9025 100 78 50
-0.503502 0.187892 4.18076 172 150 129
-0.0508519 1.50547 4.91192 177 155 130
0.0471586 1.80733 4.91263 112 88 56
0.0471586 1.80733 4.91263 112 88 56
-0.541734 0.0582696 4.17471 120 101 78
-0.595003 -0.128412 4.23277 117 94 71
-0.517985 0.121024 4.18017 100 77 56
-0.380659 0.524893 4.36191 165 148 125
0.0299193 1.73483 4.89941 165 142 110
-0.0541699 1.45923 4.91715 153 128 96
-0.602144 -0.177893 4.25683 184 166 142
-0.498896 0.148867 4.18132 108 86 62
-0.0904382 1.31203 4.95439 100 68 28
0.0495244 1.75491 4.90741 174 152 118
-0.565819 -0.0726199 4.20682 130 110 86
-0.579809 -0.122848 4.22601 188 167 143
-0.43553 0.322699 4.25726 126 107 86
-0.556844 -0.0514349 4.19529 134 116 92
-0.483637 0.177868 4.18634 161 138 114
-0.0217038 1.50314 4.91917 108 82 48
-0.504687 0.0897894 4.17872 168 144 121
0.0370415 1.66832 4.91951 96 70 32
-0.519252 0.0394256 4.16645 131 110 88
-0.583069 -0.175361 4.23692 190 174 152
-0.371429 0.473627 4.34 157 139 116
-0.481772 0.13045 4.16618 172 154 134
-0.34246 0.532273 4.37306 110 92 68
-0.0436513 1.36113 4.96884 96 67 32
-0.427549 0.131287 5.04651 128 106 86
0.0957402 1.79621 4.9345 152 128 92
-0.432246 0.239305 4.20867 117 99 80
-0.199694 0.823703 4.95962 82 2 6
-0.174126 0.915896 4.87322 152 100 105
0.00965962 1.47441 4.92748 90 62 30
-0.523347 -0.0703328 4.17498 183 164 142
-0.435154 0.190689 4.19601 182 169 145
-0.543355 -0.157537 4.21327 184 164 140
-0.515896 -0.0781712 4.17371 132 112 88
-0.318574 0.497097 4.36568 160 140 116
-0.431871 0.160209 4.16584 128 105 81
-0.431871 0.160209 4.16584 128 105 81
-0.3083 0.508196 4.3619 176 156 135
-0.33778 0.407726 4.29572 106 88 68
0.13516 1.74793 4.95664 164 143 111
-0.355827 0.346333 4.24938 104 80 58
-0.422463 0.142958 4.17601 112 90 70
-0.494778 -0.0905725 4.16865 190 170 146
0.074087 1.52125 4.9283 178 157 127
-0.438656 0.0736226 4.16484 188 168 144
0.00711898 1.29502 4.9693 124 100 70
0.00711898 1.29502 4.9693 124 100 70
-0.483272 -0.0781702 4.16404 127 108 85
-0.41644 0.130082 4.16243 178 162 140
-0.0054001 1.22886 4.98594 96 62 26
-0.484186 -0.0940059 4.16056 143 125 102
-0.32894 0.367231 4.25834 167 148 128
0.106753 1.58458 4.93911 172 150 118
0.11584 1.60848 4.91095 120 100 67
-0.375682 0.21444 4.21719 103 86 69
0.0126783 1.24622 4.95 165 138 105
-0.450443 -0.026626 4.14706 178 158 134
-0.436089 0.008316 4.14687 115 92 70
0.15539 1.67364 4.95895 170 146 115
-0.08697 0.950593 4.79612 124 0 6
0.183918 1.73756 4.97491 124 104 72
-0.429025 -0.0095686 4.14901 172 154 130
-0.441077 -0.0478049 4.14885 172 152 127
0.406959 2.29041 5.44755 29 6 2
-0.433928 -0.0326024 4.13948 181 161 137
-0.33866 0.247072 4.21725 94 73 52
0.0664646 1.30783 5.01259 146 117 78
-0.312741 0.311861 4.23241 174 152 130
0.0740237 1.32477 5.01312 90 61 24
0.0132902 1.12187 5.06566 80 47 19
0.0132902 1.12187 5.06566 80 47 19
-0.429012 -0.049267 4.14894 104 79 58
0.102443 1.39692 5.00628 148 120 84
0.0408278 1.19755 5.01768 164 135 103
-0.280435 0.369154 4.28003 162 144 122
0.0357397 1.16537 5.05067 137 110 80
0.0822786 1.31825 5.00066 151 122 84
-0.320328 0.242057 4.20797 168 148 124
0.159127 1.53197 4.99197 108 81 45
-0.401015 -0.0121041 4.14951 173 152 130
0.168426 1.55444 4.93836 156 130 92
-0.379984 0.0390019 4.15341 174 156 136
0.0731558 1.22258 5.02742 111 82 44
-0.249583 0.401117 4.30444 80 56 33
-0.334059 0.151858 4.17741 168 156 134
0.0531685 1.12102 5.08456 138 104 75
-0.356287 0.0846373 4.15786 100 81 60
0.133434 1.38232 4.99979 103 74 38
0.168047 1.4815 4.99753 154 124 86
0.0503586 1.08363 5.10537 68 36 8
0.0871941 1.20375 5.06098 104 75 35
-0.407055 -0.09562 4.14755 178 162 140
-0.377252 -0.00544549 4.14456 123 104 82
-0.247793 0.36048 4.27515 150 128 103
-0.333471 0.122854 4.16395 193 179 162
-0.00394291 0.91894 4.93702 162 101 97
-0.346528 0.0621147 4.14397 168 156 133
0.221472 1.57635 5.02916 152 120 81
-0.247285 0.331213 4.24417 100 74 53
-0.234854 0.33159 4.26724 88 66 42
0.146211 1.28251 5.08746 150 120 78
0.146211 1.28251 5.08746 150 120 78
-0.201609 0.397291 4.30863 110 88 62
-0.325849 0.0542884 4.14874 168 154 130
-0.246097 0.275118 4.23069 161 144 122
-0.276072 0.174899 4.22439 162 146 122
-0.357406 -0.0747274 4.15147 173 158 134
-0.21311 0.32601 4.27269 98 75 50
-0.195996 0.361971 4.29519 160 140 115
-0.263813 0.165287 4.22514 174 156 133
-0.258631 0.17601 4.2175 121 101 76
-0.240848 0.217542 4.22186 106 82 54
-0.308583 0.0202995 4.15932 110 87 66
-0.334243 -0.0619969 4.16287 179 164 143
-0.244186 0.183693 4.20745 163 143 118
-0.235154 0.183609 4.21122 167 147 121
-0.235154 0.183609 4.21122 167 147 121
-0.143259 0.407172 4.34521 158 142 122
-0.211738 0.22761 4.22956 110 90 65
-0.187378 0.284635 4.28563 82 58 34
-0.186155 0.26632 4.26977 140 122 97
-0.24081 0.104722 4.18637 158 142 118
-0.152109 0.329416 4.31049 80 58 32
-0.1947 0.216616 4.23735 103 82 58
0.574585 2.19685 5.40935 58 28 4
0.574585 2.19685 5.40935 58 28 4
-0.169516 0.26494 4.27546 88 68 43
-0.184526 0.227331 4.24463 160 138 112
-0.116167 0.382693 4.35338 157 134 106
-0.206926 0.147148 4.21746 152 136 112
-0.198973 0.166633 4.22353 106 84 58
-0.199898 0.137603 4.24546 152 136 114
-0.273365 -0.0582224 4.1493 172 155 134
-0.2239 0.0821504 4.18379 106 85 61
-0.161191 0.227098 4.27128 92 67 40
-0.161191 0.227098 4.27128 92 67 40
-0.117936 0.333877 4.32885 160 141 114
-0.270936 -0.0986254 4.19214 111 88 63
-0.246686 -0.0129973 4.16062 168 152 134
-0.187711 0.10248 4.20612 141 121 96
-0.0854457 0.340865 4.34646 161 143 110
-0.145069 0.178302 4.26216 92 66 32
-0.119477 0.232517 4.28459 92 66 36
-0.12611 0.202708 4.29335 90 62 31
0.400813 1.25391 5.77053 186 182 168
0.666396 2.1803 5.19711 100 73 50
0.69468 2.10654 5.33012 68 41 16
-0.235928 -0.0449 3.48042 90 68 42
0.742895 2.35088 4.92491 74 48 22
-0.216215 -0.192424 3.90481 97 70 39
0.688215 1.902 5.4722 152 138 106
0.725618 2.20944 4.9946 74 47 24
0.787485 2.2005 4.91015 84 55 28
0.791507 2.09298 5.0187 74 50 24
0.820633 2.03299 5.2341 68 44 19
0.820633 2.03299 5.2341 68 44 19
0.9175 2.09099 4.84775 100 74 51
0.949119 2.22756 4.73529 110 86 60
1.0701 2.55641 4.78865 108 94 74
1.01512 2.38836 4.72166 172 162 142
0.977787 2.18615 4.72697 97 76 51
1.13222 2.57877 4.78989 156 144 118
0.980904 1.91717 5.06937 84 58 32
0.969924 1.94724 4.91835 124 96 71
0.969924 1.94724 4.91835 124 96 71
1.00342 2.14874 4.70004 152 131 106
1.01559 2.18336 4.68937 156 134 110
0.980169 1.97705 4.83262 136 110 84
1.00904 1.93094 4.86977 135 108 82
1.04469 2.11684 4.71901 164 142 119
1.178 2.48636 4.73832 136 116 90
1.178 2.48636 4.73832 136 116 90
1.04363 1.94983 4.7664 90 64 40
1.05921 1.8788 4.9206 88 61 34
1.05921 1.8788 4.9206 88 61 34
1.0645 1.90265 4.85193 80 52 26
1.08215 1.857 4.92855 135 108 82
1.07528 1.98401 4.70143 160 135 109
1.07528 1.98401 4.70143 160 135 109
1.09136 1.86723 4.88517 120 94 68
1.17058 2.26176 4.62996 164 153 132
1.13595 2.13053 4.61382 128 111 86
1.14393 2.08256 4.62899 182 166 144
1.13109 1.82199 4.93144 140 116 88
1.12094 1.85697 4.82827 80 55 31
1.16637 2.09031 4.62364 176 152 126
1.17473 2.06609 4.63989 106 82 55
1.16471 1.81659 4.86786 133 106 82
1.27986 2.29267 4.62207 150 135 110
1.17142 1.94723 4.63445 111 84 54
1.20843 2.07329 4.61398 192 174 148
1.25346 2.21198 4.60097 158 145 122
1.21865 2.03566 4.63952 176 150 124
1.21037 1.79659 4.91145 129 102 74
1.32136 2.32423 4.64462 150 135 108
1.20478 1.98921 4.61575 172 150 125
1.236 2.06482 4.61647 114 88 59
1.20847 1.85341 4.76008 138 108 82
1.21695 1.92213 4.63608 101 75 48
1.25159 2.00742 4.62237 178 166 147
1.24272 1.8352 4.79994 88 56 28
1.22968 1.9023 4.65731 100 72 42
1.24166 1.92851 4.64301 108 86 59
1.28962 2.02465 4.62024 203 188 166
1.37946 2.236 4.63386 196 182 158
1.37946 2.236 4.63386 196 182 158
1.29811 1.78599 4.8604 104 78 50
1.29811 1.78599 4.8604 104 78 50
1.33655 2.12103 4.58497 203 188 162
1.29478 1.92382 4.64108 116 94 66
1.55127 2.1894 5.21214 174 154 124
1.3391 2.03364 4.62051 192 176 150
1.31276 1.90778 4.66791 174 150 122
1.32662 1.77984 4.86516 175 155 126
1.31683 1.8055 4.79422 90 60 31
1.32226 1.95198 4.61939 146 120 91
1.35024 2.02526 4.62743 117 97 72
1.3225 1.91021 4.65575 108 84 56
1.35316 1.78362 4.88568 170 150 122
1.32917 1.86793 4.68327 148 120 90
1.41347 2.13801 4.63184 132 115 90
1.34808 1.844 4.72011 92 60 29
1.34808 1.844 4.72011 92 60 29
1.3498 1.92141 4.61953 122 97 68
1.36042 1.82058 4.75632 82 46 18
1.45737 2.17323 4.6562 184 168 138
1.40175 1.81829 4.74679 146 121 92
1.40175 1.81829 4.74679 146 121 92
1.40175 1.81829 4.74679 146 121 92
1.50825 1.86869 4.86047 85 53 17
-0.409773 2.50436 4.94163 129 94 64
-0.23011 1.47177 4.98306 124 99 72
-0.219897 1.45404 4.90094 166 142 114
-0.263167 0.708593 4.76824 140 112 122
0.0577185 1.51524 4.90644 127 105 77
-0.490939 1.07338 5.2899 120 18 33
-0.946101 -1.12225 8.02015 144 136 130
-0.8925 -1.06735 7.95722 139 131 124
-0.8925 -1.06735 7.95722 139 131 124
-0.790847 -1.04947 7.94375 185 176 168
-0.747662 -0.98344 7.97458 127 117 112
-0.526806 -1.03516 8.2744 158 147 136
-0.41735 1.86458 4.45099 110 85 56
-0.393022 1.89358 4.44643 149 126 96
-0.173898 1.55434 4.62136 176 152 124
0.237556 -0.227591 -0.386876 120 98 80
0.237556 -0.22759 -0.386876 118 82 52
0.237556 -0.22759 -0.386876 103 78 54
0.237556 -0.22759 -0.386874 162 138 110
0.237556 -0.227589 -0.386873 159 130 97
0.237556 -0.22759 -0.386875 100 72 44
0.237556 -0.227589 -0.386872 115 90 63
0.237556 -0.227589 -0.386873 120 96 70
0.237556 -0.22759 -0.386874 110 84 56
0.237556 -0.22759 -0.386874 96 70 42
0.237556 -0.227589 -0.386873 105 80 54
0.237556 -0.227589 -0.386872 110 82 53
0.237556 -0.22759 -0.386874 152 128 100
0.237546 -0.227557 -0.386758 174 150 126
0.237556 -0.227588 -0.386868 80 54 36
0.237556 -0.22759 -0.386873 106 79 54
0.237556 -0.227589 -0.386871 108 73 35
0.237556 -0.227589 -0.38687 142 112 80
0.237556 -0.227589 -0.386873 120 86 48
0.237556 -0.227585 -0.386861 98 70 36
0.237556 -0.22759 -0.386873 60 26 4
0.237556 -0.227588 -0.386869 108 76 44
0.237556 -0.227588 -0.386868 93 62 28
0.237556 -0.227588 -0.386868 93 62 28
0.237556 -0.227589 -0.386871 108 76 41
-0.370841 2.22557 9.01799 143 117 98
-0.370841 2.22557 9.01799 143 117 98
0.237556 -0.227586 -0.386865 96 68 36
0.237556 -0.227589 -0.386872 166 140 112
0.237556 -0.227589 -0.386871 120 96 69
0.237556 -0.227589 -0.386869 112 88 58
0.237556 -0.227585 -0.386856 150 116 81
0.237556 -0.227588 -0.38687 99 66 28
0.237556 -0.227589 -0.386871 91 58 20
0.237556 -0.227591 -0.386876 136 100 100
0.237556 -0.22759 -0.386875 108 76 38
0.237556 -0.227581 -0.386846 108 76 38
0.237556 -0.22759 -0.386874 70 7 2
0.237556 -0.227591 -0.386876 182 166 149
0.237556 -0.227589 -0.386873 72 40 12
0.237556 -0.22759 -0.386876 114 92 66
0.237556 -0.22759 -0.386876 168 147 119
0.237556 -0.22759 -0.386875 103 79 54
0.237556 -0.22759 -0.386875 177 157 132
0.237556 -0.227591 -0.386876 190 175 153
0.237556 -0.22759 -0.386875 126 103 78
0.237556 -0.22759 -0.386874 174 153 128
0.237556 -0.22759 -0.386873 110 86 60
0.237556 -0.22759 -0.386873 172 152 126
0.237556 -0.227587 -0.386868 104 79 50
0.237557 -0.227591 -0.386876 171 148 120
0.237556 -0.227591 -0.386872 130 118 112
0.228976 -0.2232 -0.304875 148 124 100
0.231255 -0.221245 -0.295645 65 37 5
0.185778 -0.0700402 0.059281 164 141 114
0.202597 -0.0874936 -0.0328955 166 142 116
0.203818 -0.0907624 -0.0307341 92 66 38
0.201909 -0.089177 -0.0185681 110 88 60
0.182339 -0.0686634 0.10542 129 102 74
0.170985 -0.0540802 0.196634 124 98 68
0.182256 -0.069635 0.124107 176 154 126
0.182285 -0.0705081 0.167355 80 51 24
0.225496 -0.13297 -0.0984989 160 133 103
0.228275 -0.130931 -0.110668 103 74 38
0.221249 -0.137555 -0.0760653 94 71 43
0.222438 -0.14399 -0.0831398 124 98 74
0.231143 -0.134184 -0.116821 190 170 140
0.227464 -0.14043 -0.10553 163 138 108
0.230671 -0.136552 -0.113902 186 163 133
0.231182 -0.136014 -0.115318 132 109 76
0.236977 -0.132369 -0.140351 100 73 39
0.234879 -0.133378 -0.126998 166 140 108
0.230178 -0.141941 -0.112477 161 134 102
0.230178 -0.141941 -0.112477 161 134 102
0.228841 -0.153353 -0.118809 92 59 24
0.230439 -0.150637 -0.118421 92 60 25
0.232737 -0.1445 -0.114985 87 54 20
0.235247 -0.144804 -0.110642 81 49 10
1.36152 2.1083 4.61784 147 122 96
-0.134323 0.142152 2.24132 152 124 96
0.246423 -0.0879123 0.226192 150 116 88
0.44984 0.0518678 1.04539 162 124 92
0.25063 -0.0965461 0.0720638 114 76 42
-0.442612 0.130433 4.45356 128 103 80
0.237556 -0.227591 -0.386876 108 88 68
0.237556 -0.227591 -0.386876 116 93 70
0.237556 -0.227591 -0.386876 176 158 139
0.237556 -0.227591 -0.386876 107 82 60
0.237556 -0.227591 -0.386876 107 82 60
0.237556 -0.227591 -0.386876 180 160 141
0.237556 -0.227591 -0.386876 129 110 88
0.237556 -0.227591 -0.386876 118 94 72
0.237556 -0.227591 -0.386876 158 130 103
0.237556 -0.227591 -0.386876 97 69 43
0.237556 -0.227591 -0.386876 92 60 32
0.237556 -0.227591 -0.386876 108 80 50
0.237556 -0.227591 -0.386876 150 126 101
0.237556 -0.227591 -0.386876 148 113 82
0.237556 -0.227591 -0.386876 94 56 27
0.237556 -0.227591 -0.386876 78 42 16
0.237556 -0.227591 -0.386876 144 105 76
0.237556 -0.227591 -0.386876 132 94 62
0.237556 -0.227591 -0.386876 149 116 87
0.237556 -0.227591 -0.386876 130 90 58
0.237556 -0.227591 -0.386876 90 51 19
0.237556 -0.227591 -0.386876 114 79 51
0.237556 -0.227591 -0.386876 138 98 69
0.237556 -0.227591 -0.386876 138 98 69
0.237556 -0.227591 -0.386876 124 84 54
0.237556 -0.227591 -0.386876 86 46 16
0.237556 -0.227591 -0.386876 96 58 28
0.237556 -0.227591 -0.386876 133 119 108
0.237556 -0.227591 -0.386876 75 36 6
0.237556 -0.227591 -0.386876 102 67 38
0.237556 -0.227591 -0.386876 107 73 46
0.237556 -0.227591 -0.386876 176 158 138
0.237556 -0.227591 -0.386876 130 90 61
0.237556 -0.227591 -0.386876 87 48 17
0.237556 -0.227591 -0.386876 89 53 24
0.237556 -0.227591 -0.386876 136 99 68
0.237556 -0.227591 -0.386876 86 48 18
0.237556 -0.227591 -0.386876 78 57 48
0.237556 -0.227591 -0.386876 132 94 66
0.237556 -0.227591 -0.386876 84 47 18
0.237556 -0.227591 -0.386876 84 47 18
0.237556 -0.227591 -0.386876 180 151 128
0.237556 -0.227591 -0.386876 86 48 18
0.237556 -0.227591 -0.386876 174 148 124
0.237556 -0.227591 -0.386876 174 148 124
0.237556 -0.227591 -0.386876 174 152 132
0.237556 -0.227591 -0.386876 152 125 99
0.237556 -0.227591 -0.386876 152 125 99
0.237556 -0.227591 -0.386876 96 59 31
0.237556 -0.227591 -0.386876 140 107 78
0.237556 -0.227591 -0.386876 90 56 28
0.237556 -0.227591 -0.386876 108 74 45
0.237556 -0.227591 -0.386876 150 122 99
0.237556 -0.227591 -0.386876 100 64 38
0.237556 -0.227591 -0.386876 97 62 36
0.237556 -0.227591 -0.386876 173 144 121
0.237556 -0.227591 -0.386876 145 130 120
0.237556 -0.227591 -0.386876 154 122 98
0.237556 -0.227591 -0.386876 160 129 103
0.237556 -0.227591 -0.386876 160 129 103
0.237556 -0.227591 -0.386876 152 118 92
0.237556 -0.227591 -0.386876 124 88 68
0.237556 -0.227591 -0.386876 142 114 84
0.237556 -0.227591 -0.386876 107 75 50
0.237556 -0.227591 -0.386876 96 66 38
0.237556 -0.227591 -0.386876 154 122 100
0.237556 -0.227591 -0.386876 154 122 100
0.237556 -0.227591 -0.386876 104 75 50
0.237556 -0.227591 -0.386876 104 75 50
0.237556 -0.227591 -0.386876 102 68 46
0.237556 -0.227591 -0.386876 134 102 82
0.237556 -0.227591 -0.386876 138 106 80
0.237556 -0.22759 -0.386876 117 96 72
0.237556 -0.227591 -0.386876 148 118 93
0.237556 -0.227591 -0.386876 85 50 24
0.237556 -0.227591 -0.386876 156 158 161
0.237556 -0.227591 -0.386876 138 105 78
0.237556 -0.22759 -0.386876 124 98 70
0.237556 -0.22759 -0.386876 134 110 85
0.237556 -0.22759 -0.386876 129 104 80
0.237556 -0.22759 -0.386876 132 104 78
0.237556 -0.22759 -0.386876 170 142 112
0.237556 -0.22759 -0.386876 176 150 122
0.237556 -0.22759 -0.386876 117 93 70
0.237556 -0.22759 -0.386876 188 164 139
0.237556 -0.22759 -0.386876 118 92 64
0.237556 -0.22759 -0.386876 118 92 64
0.237556 -0.22759 -0.386876 135 108 82
0.237556 -0.22759 -0.386876 166 140 114
0.237556 -0.22759 -0.386876 132 108 81
0.237556 -0.22759 -0.386876 182 158 132
0.237556 -0.22759 -0.386876 141 115 90
0.237556 -0.22759 -0.386876 120 94 69
0.237556 -0.22759 -0.386876 132 106 80
0.237556 -0.22759 -0.386876 134 108 85
0.237556 -0.22759 -0.386876 116 93 69
0.237556 -0.22759 -0.386876 170 146 123
0.237555 -0.22759 -0.386869 140 124 108
0.237556 -0.22759 -0.386876 126 98 72
0.237556 -0.22759 -0.386876 106 80 54
0.237556 -0.22759 -0.386876 119 90 62
0.237556 -0.22759 -0.386876 121 98 74
0.237556 -0.22759 -0.386876 116 92 66
0.237556 -0.22759 -0.386876 116 92 66
0.237556 -0.22759 -0.386876 127 99 72
0.237556 -0.22759 -0.386876 116 92 68
0.237556 -0.22759 -0.386876 174 149 120
0.237556 -0.22759 -0.386876 178 152 124
0.237556 -0.22759 -0.386876 178 152 124
0.237556 -0.22759 -0.386876 122 100 74
0.237556 -0.22759 -0.386876 184 156 128
0.237556 -0.22759 -0.386876 169 141 116
0.237556 -0.22759 -0.386876 108 79 63
0.237556 -0.22759 -0.386876 132 105 80
0.237556 -0.22759 -0.386876 110 84 59
0.237556 -0.22759 -0.386876 130 106 80
0.237556 -0.22759 -0.386876 124 100 76
0.237556 -0.22759 -0.386876 158 132 109
0.237556 -0.22759 -0.386876 158 132 109
0.237556 -0.22759 -0.386876 146 116 93
0.237556 -0.22759 -0.386876 129 107 82
0.237556 -0.22759 -0.386876 129 107 82
0.237556 -0.22759 -0.386876 178 154 130
0.237556 -0.22759 -0.386876 130 106 80
0.237556 -0.22759 -0.386876 119 88 56
0.237556 -0.22759 -0.386876 157 129 100
0.237556 -0.22759 -0.386875 114 90 64
0.237556 -0.22759 -0.386876 174 146 121
0.237556 -0.22759 -0.386874 111 83 56
0.237556 -0.22759 -0.386874 110 83 57
0.237556 -0.22759 -0.386874 110 83 57
0.237556 -0.22759 -0.386876 122 93 67
0.237556 -0.227588 -0.38687 112 85 60
0.237556 -0.227588 -0.38687 109 84 58
0.237556 -0.22759 -0.386876 176 154 131
0.237556 -0.22759 -0.386876 176 154 131
0.237556 -0.22759 -0.386875 180 130 142
0.237556 -0.22759 -0.386876 95 70 52
0.237556 -0.22759 -0.386876 82 58 42
0.237556 -0.227589 -0.386873 117 91 68
0.237556 -0.22759 -0.386875 150 126 104
0.237556 -0.227589 -0.386873 94 63 30
-0.377938 3.70414 11.6108 117 88 60
0.121608 0.509269 1.92249 162 128 92
0.237556 -0.22759 -0.386876 111 4 6
0.237556 -0.22759 -0.386874 146 112 77
0.237556 -0.22759 -0.386873 152 121 82
0.237556 -0.22759 -0.386874 150 118 92
0.237556 -0.22759 -0.386875 148 104 114
0.0746364 0.830842 3.72284 85 50 26
0.237556 -0.22759 -0.386876 165 138 141
-0.219087 3.75314 15.2854 79 42 14
0.237556 -0.22759 -0.386875 120 4 4
0.237557 -0.227591 -0.386876 172 152 137
0.237557 -0.227591 -0.386876 78 70 69
0.161083 -0.0249439 0.269138 115 82 54
0.155378 -0.0182638 0.322253 172 141 112
0.169938 -0.0294398 0.280135 168 142 114
0.201757 -0.0589868 0.171211 164 136 105
0.215917 -0.0751092 0.0642291 182 152 122
0.203318 -0.0567029 0.227951 130 102 77
0.222135 -0.0825156 0.0777514 155 124 97
0.231 -0.0924837 0.0257269 104 72 38
0.228624 -0.0907382 0.0657626 162 129 95
0.741996 4.37575 16.1741 132 97 60
0.237557 -0.227591 -0.386876 26 22 16
0.237557 -0.227591 -0.386876 90 82 76
0.237557 -0.227591 -0.386876 184 168 159
0.237557 -0.227591 -0.386876 119 100 82
0.219647 -0.121232 -0.00241344 171 144 116
-0.749853 0.533782 6.79304 142 117 92
0.13272 -0.0429016 0.245253 108 85 64
0.212415 -0.108711 -0.0672969 118 93 66
0.216211 -0.111749 -0.0749891 128 98 70
0.221469 -0.115031 -0.0976616 100 74 47
0.224933 -0.116572 -0.117724 94 66 38
0.225632 -0.116872 -0.113348 96 72 46
0.200166 -0.095162 0.0739596 102 76 48
0.203434 -0.0991145 0.052848 187 160 136
0.20279 -0.0965003 0.0919574 96 65 42
0.218108 -0.115275 -0.0203767 147 114 80
0.219775 -0.117143 -0.018548 159 134 106
0.218261 -0.115572 0.00781199 132 108 84
0.161965 -0.188834 -0.0784662 150 130 112
0.14006 -0.188481 -0.00617952 136 112 90
0.189574 -0.194866 -0.166203 200 184 165
0.14667 -0.17919 0.00325653 186 172 154
0.114182 -0.177967 0.115628 212 198 178
0.102371 -0.182697 0.149757 200 183 159
0.13147 -0.175968 0.0628101 128 107 86
0.104745 -0.179749 0.145951 198 181 162
0.189239 -0.194083 -0.16038 198 182 162
0.156028 -0.179688 -0.0227417 190 172 152
0.095879 -0.178827 0.184875 130 106 84
0.108924 -0.172613 0.151696 199 180 155
0.126213 -0.171451 0.0965423 196 177 156
0.0840582 -0.183157 0.223891 146 121 96
0.0840582 -0.183157 0.223891 146 121 96
0.100825 -0.170614 0.188814 116 84 60
0.159561 -0.17919 -0.0263371 180 160 140
0.202916 -0.20102 -0.21504 196 178 152
0.0829739 -0.174298 0.248757 128 101 78
0.148431 -0.174361 0.0229524 170 150 126
0.0764767 -0.175828 0.272121 120 94 71
0.0725968 -0.180651 0.278105 130 98 73
0.121274 -0.125201 0.2175 133 110 86
0.0790508 -0.171893 0.270705 186 160 136
0.0657202 -0.185441 0.299631 148 132 120
0.0653375 -0.185432 0.29818 148 132 120
0.0739403 -0.173543 0.287984 202 186 164
0.0906084 -0.16515 0.245176 171 146 123
0.0768136 -0.168012 0.291385 103 73 47
0.148453 -0.17297 0.0332559 164 138 110
0.105745 -0.161944 0.204122 100 74 47
0.0749348 -0.164386 0.310653 116 90 70
0.0650223 -0.167064 0.343531 101 72 44
0.0519309 -0.187087 0.358087 195 184 174
0.0829834 -0.160425 0.292415 119 96 72
0.14616 -0.170828 0.05056 156 130 102
0.0672956 -0.161494 0.35195 157 132 102
0.0759719 -0.158795 0.325761 162 139 113
0.0425385 -0.194135 0.391022 146 136 128
0.0410938 -0.188466 0.406484 138 118 108
0.0376406 -0.182157 0.433868 148 136 128
0.133781 -0.164169 0.118592 152 119 92
0.0646104 -0.152775 0.394178 101 67 37
0.0775449 -0.149941 0.357993 86 51 21
0.0215842 -0.182016 0.51092 190 186 182
0.19678 -0.195743 -0.167353 110 83 54
0.000144416 -0.172971 0.635306 136 122 108
-0.00694543 -0.171384 0.675439 178 160 144
0.00821256 -0.218637 0.536953 167 162 157
-0.00241695 -0.155107 0.689891 120 92 63
-0.000905695 -0.149652 0.697333 114 81 52
-2.31873 2.66401 15.8766 144 116 84
-0.0114184 -0.15234 0.74231 162 138 108
-0.0193416 -0.165916 0.747947 175 154 128
0.204606 -0.199814 -0.194033 151 124 94
0.204606 -0.199814 -0.194033 151 124 94
0.0850752 0.132559 1.13433 109 2 6
-0.682332 0.950975 6.00331 141 110 82
0.187239 -0.183335 -0.077452 96 66 37
-0.850158 1.14985 7.32935 146 117 86
0.19161 -0.0264044 0.33501 179 148 118
-0.0960345 -0.150714 1.20859 118 86 58
0.231115 -0.152631 -0.158677 134 111 80
0.20529 -0.0451992 0.245492 141 119 88
0.228558 -0.134982 -0.097757 182 156 129
-0.124321 -0.151798 1.37744 109 74 46
0.233931 -0.165253 -0.200779 182 154 124
0.205084 -0.033221 0.292468 189 164 138
0.104287 0.171875 1.29319 116 7 12
0.234526 -0.166587 -0.205442 109 78 48
0.216029 -0.0660132 0.157465 178 152 122
0.228291 -0.119487 -0.0438536 120 90 60
0.191796 0.0336242 0.580384 147 110 78
0.191796 0.0336242 0.580384 147 110 78
0.225943 -0.0897709 0.0639874 110 79 44
0.200859 0.0201765 0.515505 110 76 46
0.236954 -0.161695 -0.190734 116 80 46
0.238938 -0.197975 -0.304594 112 79 45
0.232842 -0.118075 -0.0416503 157 122 85
0.208093 0.0127008 0.478738 110 76 44
0.191308 0.06868 0.735963 106 70 43
-0.23213 -0.149072 2.10521 145 112 74
-0.241599 -0.158114 2.15587 97 62 26
-0.251369 -0.118281 2.32178 134 100 68
0.178557 0.132023 1.04092 154 119 94
-0.264216 -0.108756 2.44846 79 43 14
0.192496 0.0929788 0.845679 164 135 109
0.187046 0.121268 0.981294 144 110 86
-0.407607 0.926592 6.69192 131 88 74
0.123883 0.27761 1.83056 178 115 107
0.215244 0.0470598 0.622624 86 48 12
0.240965 -0.024384 0.30819 146 113 77
-0.435659 0.0958943 5.05915 84 52 20
0.193973 -0.185625 0.0859893 124 96 68
0.0676736 0.355597 2.34562 175 132 142
0.244426 -0.110308 -0.0177454 98 64 30
0.159091 0.113598 0.949363 88 50 28
0.18928 -0.627441 1.39776 115 96 80
0.188859 -0.627378 1.39781 115 96 80
0.193803 -0.603155 1.27507 158 140 121
0.193399 -0.603233 1.27447 158 140 121
0.187688 -0.616369 1.33956 114 96 78
0.196376 -0.558706 1.05574 119 101 84
0.152958 -0.118844 0.152892 124 90 60
0.222366 -0.183924 -0.202595 215 192 208
0.233706 -0.189748 -0.266115 196 173 145
0.225622 -0.182282 -0.209418 166 138 118
0.22516 -0.181937 -0.206102 102 8 10
0.227659 -0.181525 -0.214984 118 82 51
0.235199 -0.190352 -0.271139 188 164 132
0.232727 -0.184863 -0.244991 160 140 113
0.230359 -0.178996 -0.213978 155 131 104
0.226496 -0.177297 -0.189491 142 115 86
0.227829 -0.177201 -0.196079 197 176 156
0.236817 -0.191193 -0.276758 108 74 38
0.236817 -0.191193 -0.276758 108 74 38
0.234831 -0.184416 -0.247585 110 78 44
0.213915 -0.180555 -0.133588 193 174 200
0.213332 -0.180047 -0.123366 138 26 44
0.22657 -0.172103 -0.165777 142 98 76
0.229795 -0.171117 -0.176818 114 80 49
0.239571 -0.197778 -0.302722 164 134 98
0.236389 -0.180941 -0.237396 101 67 30
0.222178 -0.174425 -0.144072 158 124 130
0.22725 -0.167787 -0.148876 88 51 30
0.221777 -0.171914 -0.125368 118 7 12
0.236311 -0.171509 -0.198895 98 62 26
0.232334 -0.160752 -0.138593 88 54 24
0.229394 -0.157914 -0.111694 90 54 28
0.230435 -0.157722 -0.115664 100 66 38
0.232072 -0.157688 -0.123038 148 113 85
0.230758 -0.15612 -0.109114 138 102 74
0.228916 -0.15276 -0.083886 118 58 43
0.233027 -0.153882 -0.107797 98 60 24
0.235916 -0.15755 -0.135708 102 66 30
0.223679 -0.154532 -0.0535953 196 181 197
0.238994 -0.164135 -0.173507 110 74 36
0.233571 -0.151996 -0.100695 101 63 26
0.237542 -0.156271 -0.13438 96 60 24
0.232826 -0.147214 -0.0727402 83 44 14
0.23222 -0.146227 -0.0647535 140 100 68
0.231801 -0.14347 -0.0484098 126 88 55
0.239444 -0.156596 -0.140862 106 70 34
0.232791 -0.143358 -0.0520255 126 88 58
0.237268 -0.149877 -0.102835 90 50 14
0.237268 -0.149877 -0.102835 90 50 14
0.240658 -0.158846 -0.15374 95 59 24
0.239191 -0.153483 -0.125739 94 58 21
0.236555 -0.146046 -0.0816541 90 52 15
0.241592 -0.162097 -0.169836 90 54 18
-1.44975 -0.50672 9.5572 136 108 79
0.239164 -0.149936 -0.108748 96 61 23
0.234247 -0.137742 -0.0288337 135 96 62
0.240369 -0.149971 -0.112299 106 69 30
0.238034 -0.142493 -0.0683204 98 62 24
0.237192 -0.139398 -0.0491684 98 60 24
0.239977 -0.145916 -0.0916263 100 63 24
-1.50505 -0.559976 10.2744 125 97 68
0.240862 -0.141733 -0.0729865 89 51 14
0.237849 -0.13472 -0.0269471 88 50 14
0.244091 -0.151673 -0.128559 142 106 68
0.238975 -0.131178 -0.0118751 86 48 12
0.240515 -0.134041 -0.0322166 90 52 15
0.241695 -0.135529 -0.0437939 94 58 22
0.245093 -0.151084 -0.127714 146 108 73
0.242286 -0.13656 -0.050682 86 48 13
0.244783 -0.144679 -0.0972259 86 48 11
0.239944 -0.127655 0.00463828 94 57 21
0.245223 -0.14777 -0.112844 131 94 58
0.245233 -0.1478 -0.112742 131 94 58
-1.63254 -0.609623 11.5729 104 70 42
0.23754 -0.1235 0.0375008 132 95 62
0.241104 -0.127683 0.000314228 144 108 70
0.243844 -0.135641 -0.0503335 148 110 72
-1.23717 -0.654936 8.71656 144 118 92
-1.38996 -0.649179 9.85035 126 98 70
-1.53255 -0.665372 11.0829 96 60 30
-1.79402 -0.652002 13.1886 96 68 40
0.248235 -0.162665 -0.18167 95 61 26
0.247622 -0.142732 -0.0935624 140 102 66
-1.91099 -0.655765 14.2556 56 30 12
-1.83385 -0.666352 13.6271 136 106 80
0.247343 -0.137565 -0.0685395 96 58 22
0.242657 -0.117682 0.0508086 144 107 68
-1.47494 -0.703989 10.8268 110 73 42
0.248557 -0.148243 -0.120648 86 50 14
0.246521 -0.128997 -0.0233287 142 106 68
0.241635 -0.113147 0.0824622 134 96 60
0.24607 -0.12565 -0.0044789 100 62 28
0.247268 -0.130895 -0.0345303 148 110 70
0.247268 -0.130895 -0.0345303 148 110 70
-1.39629 -0.720735 10.2849 174 144 116
-1.95702 -0.684046 14.8364 62 39 18
0.249339 -0.145501 -0.109465 134 96 62
0.249663 -0.164821 -0.191621 92 58 22
0.249582 -0.164823 -0.191574 92 58 22
-1.54805 -0.740333 11.6271 176 144 115
-2.00454 -0.711568 15.4442 48 30 14
0.247815 -0.120981 0.0166445 93 54 18
0.25043 -0.15025 -0.131859 144 108 71
-1.38686 -0.757515 10.4316 104 73 46
-1.75436 -0.749241 13.4344 97 64 34
-1.50528 -0.763927 11.4079 110 79 50
-1.59228 -0.764728 12.1374 161 130 102
0.23614 -0.0942491 0.238436 62 30 4
0.251247 -0.144047 -0.10532 83 46 9
-1.71954 -0.77184 13.2685 153 118 90
0.247592 -0.105392 0.106882 81 44 9
0.247814 -0.102965 0.119957 136 99 63
0.251919 -0.155454 -0.155615 82 49 14
0.245939 -0.097417 0.163065 119 82 48
0.25495 -0.17046 -0.246391 57 26 2
0.25495 -0.17046 -0.246391 57 26 2
0.232699 -0.0871784 0.321181 59 20 0
0.232699 -0.0871784 0.321181 59 20 0
0.217467 -0.14645 0.175874 94 6 8
-2.00056 -0.805191 16.029 133 104 77
0.244252 -0.0881325 0.233222 128 91 58
0.244066 -0.0880732 0.232982 128 91 58
0.254311 -0.173792 -0.2603 87 58 36
0.252985 -0.11871 0.0163456 86 49 16
0.217511 -0.146941 0.188508 122 84 76
0.254075 -0.131919 -0.0526589 94 58 21
0.253626 -0.119356 0.0108775 138 100 63
0.253549 -0.11936 0.0109233 138 100 63
0.247939 -0.198218 -0.320311 76 45 20
0.247496 -0.0875557 0.221622 76 38 8
0.253423 -0.110416 0.0605185 94 56 21
0.253423 -0.110416 0.0605185 94 56 21
0.248269 -0.197176 -0.317525 125 97 74
0.251297 -0.0947459 0.159064 72 34 0
-1.52417 -0.884577 12.2665 100 67 36
0.250101 -0.0878368 0.208553 139 101 63
0.23677 -0.0718657 0.41079 68 32 4
0.24905 -0.0832278 0.244035 130 92 56
0.240523 -0.0712513 0.385081 80 44 11
0.255935 -0.122216 -0.00758408 86 48 10
0.221761 -0.191078 -0.0448608 108 81 58
0.219492 -0.163149 0.12633 62 4 8
0.256114 -0.138058 -0.0841062 96 60 23
0.256384 -0.103832 0.0905539 97 59 22
-1.80648 -0.949933 15.1637 150 116 86
0.257745 -0.128164 -0.0383824 83 48 10
-1.68731 -0.956385 14.1248 156 124 93
0.255079 -0.0850119 0.20736 86 50 14
0.253019 -0.0741572 0.289118 86 48 10
0.255587 -0.0823676 0.224635 136 101 66
0.243608 -0.0595239 0.456751 91 54 18
0.243777 -0.0595359 0.456786 91 54 18
0.252425 -0.0703702 0.31984 78 40 6
0.258136 -0.132042 -0.0586129 84 49 12
0.256222 -0.0783453 0.248235 77 40 8
0.259437 -0.110651 0.0464316 85 48 14
0.259409 -0.103679 0.0839707 126 90 53
0.255253 -0.0674372 0.327024 134 96 58
0.259984 -0.081424 0.215858 136 98 62
0.261581 -0.0879159 0.171818 74 36 4
0.261622 -0.0878624 0.171579 74 36 4
0.262254 -0.10785 0.056343 92 54 18
0.263367 -0.0992065 0.101597 75 38 4
0.257579 -0.0520166 0.432788 85 47 11
0.263877 -0.0820619 0.201341 129 91 54
0.263818 -0.082065 0.201385 129 91 54
0.24753 -0.0340393 0.657749 82 48 14
0.23246 -0.0400781 0.804921 63 30 5
0.263745 -0.064642 0.316005 88 51 14
0.26474 -0.0724988 0.260538 84 44 10
0.26468 -0.0724719 0.260457 84 44 10
0.261495 -0.0345736 0.552636 134 98 59
0.268836 -0.0993723 0.0924622 76 38 4
0.279259 -0.0231315 0.568614 83 44 10
0.279259 -0.0231315 0.568614 83 44 10
0.28002 -0.0255874 0.546319 130 92 57
0.28043 -0.0452424 0.402601 76 36 4
0.2782 -0.0024548 0.746443 72 36 4
0.279589 -0.0689537 0.249727 136 100 63
0.281859 -0.0609773 0.29576 137 101 66
0.284505 0.000922598 0.746544 130 94 57
0.28504 -0.001158 0.726828 82 46 10
0.284263 -0.0572994 0.314866 80 44 10
0.276676 0.0509837 1.31769 64 30 4
0.290284 -0.0113511 0.624925 124 85 50
0.281437 -0.0862077 0.149178 82 49 17
0.256698 0.065746 1.89147 110 76 70
0.296261 0.0121286 0.797218 69 33 1
0.291887 0.0590143 1.28186 58 23 0
0.295196 0.0562141 1.23481 58 22 0
0.263435 0.0792633 1.96794 48 6 0
0.299251 0.0127176 0.79218 122 86 53
0.296637 0.0723271 1.39999 72 36 2
0.230386 0.00276129 1.94407 52 6 0
0.230386 0.00276129 1.94407 52 6 0
0.306751 0.0645996 1.24938 114 76 42
0.312084 0.0527968 1.11579 60 27 0
0.319595 0.0627907 1.18113 116 82 44
0.319478 0.0746651 1.29083 126 86 46
0.331926 0.127355 1.81815 71 34 2
0.334976 0.0645094 1.13938 48 20 0
0.343206 0.119043 1.65563 136 96 56
0.348652 0.137069 1.84036 72 32 0
0.351433 0.151103 1.99381 72 33 2
0.348926 0.103539 1.46795 79 40 2
0.359862 0.132817 1.73678 132 90 48
0.363796 0.148425 1.89646 132 90 51
0.374362 0.107244 1.43431 80 40 3
0.237393 -0.15871 1.05758 16 15 6
0.383929 0.12222 1.55638 82 38 3
0.40445 0.175062 2.05143 98 58 16
0.39126 0.127583 1.59269 82 39 2
0.406782 0.160344 1.88493 98 56 13
-0.479631 -1.27335 7.30773 198 187 178
0.411834 0.158138 1.85339 144 102 58
0.436273 0.221818 2.49441 80 42 6
0.280835 0.0338195 5.5896 4 4 2
0.39718 0.114643 1.4629 82 42 2
-0.694095 -1.63459 11.1348 135 124 118
0.432345 0.169532 1.92527 152 110 68
0.419411 0.13115 1.58557 142 100 58
0.448442 0.187174 2.08739 141 100 58
-0.318578 -1.20337 6.10947 198 185 174
0.462377 0.182551 2.02555 99 58 18
-0.770262 -2.02161 14.8343 136 122 116
-0.281046 -1.15952 5.6671 155 140 130
0.873706 0.895554 13.7005 74 67 59
-0.336687 -1.27708 6.69418 146 134 122
0.892584 0.903044 13.6119 174 172 172
0.447925 0.127107 1.53709 102 62 21
-0.100673 -0.914132 3.5002 210 199 192
0.472555 0.150614 1.73311 104 64 22
-0.266522 -1.28638 6.48999 140 126 116
-0.144977 -1.08238 4.69394 142 128 115
-0.197732 -1.23049 5.86504 192 179 168
-0.197732 -1.23049 5.86504 192 179 168
0.514096 0.182752 2.0181 132 94 55
0.016108 -0.737042 2.19256 194 185 176
-0.00394532 -0.791211 2.53756 152 138 128
0.533686 0.197631 2.15724 133 95 56
0.66961 0.363072 3.87787 112 94 68
0.601772 0.279205 2.96162 80 40 6
0.529563 0.181683 2.0273 130 90 53
0.529824 0.182357 2.02385 130 90 53
0.525578 0.173854 1.94996 90 50 14
0.625205 0.273253 2.91405 88 50 12
0.0664108 -0.683483 1.80852 156 144 134
-0.0660915 -1.14146 4.87388 202 190 180
-0.221721 -1.89721 11.2726 188 171 156
-0.22172 -1.89719 11.2726 188 171 156
-0.30712 -2.48773 17.0795 105 86 69
0.0404589 -0.813671 2.56917 198 184 172
0.0498004 -0.78678 2.411 136 122 114
