ply
format ascii 1.0
element vertex 1085
property float x
property float y
property float z
property uchar red
property uchar green
property uchar blue
end_header
-39.2607 33.4973 37.4942 0 255 0
-39.6461 36.8229 36.1998 0 255 0
-43.2529 35.0757 28.5426 0 255 0
-48.2909 32.8915 21.9098 0 255 0
-56.7993 32.7875 4.93068 0 255 0
-48.2311 24.1886 5.31757 0 255 0
-50.3271 18.8721 2.50032 0 255 0
-49.1885 28.2308 5.93343 0 255 0
-41.5034 38.1582 17.7464 0 255 0
-39.7695 40.4843 36.0142 0 255 0
-42.0867 24.1055 -7.49775 0 255 0
-39.1664 11.8044 5.18559 0 255 0
-40.7949 11.6334 3.98102 0 255 0
-39.3511 11.8068 5.04859 0 255 0
-39.1101 11.4893 5.68806 0 255 0
-20.9132 -10.1944 30.6404 22 22 15
-24.0189 -6.64815 30.6967 170 127 114
-31.8612 -1.15572 34.7653 79 78 28
-27.7666 -5.13549 31.8776 149 80 44
-29.2732 -4.23127 32.739 36 28 14
-32.6718 -1.11861 34.6453 116 122 62
-40.2288 -7.20767 39.3824 188 174 166
-32.7435 -4.36661 33.8699 116 124 52
-32.7661 -4.28417 33.8738 116 124 52
-28.4324 -4.85411 30.6452 156 101 72
-28.6532 -4.84201 30.5421 148 112 92
-33.8558 -1.26582 33.7656 69 72 27
-29.5921 -4.69172 30.8196 32 40 18
-30.5847 -3.03809 31.3032 35 46 19
-38.3814 -11.715 36.2124 40 109 86
-30.9637 -4.54449 31.4712 14 15 11
-30.8502 -4.463 31.2069 68 84 44
-41.3162 -16.0839 37.5341 106 132 115
-31.8715 -4.34421 31.5942 86 100 67
-38.5715 -11.3364 35.6877 60 119 104
-37.431 -12.051 34.7163 173 184 190
-32.383 -2.7374 31.6735 86 103 82
-25.2611 -4.42648 26.4627 30 23 10
-31.6553 -4.64444 30.6057 36 35 42
-31.6451 -4.67116 30.6019 36 35 42
-31.4871 -5.65969 30.356 37 41 40
-33.5393 -4.29778 31.8209 78 82 56
-31.0412 -4.89625 29.9698 120 142 80
-32.2048 -4.60806 30.7898 117 134 96
-31.2746 -4.85034 30.1142 98 123 68
-32.2999 -3.75756 30.773 122 146 91
-31.8778 -4.73036 30.4385 96 120 77
-33.0381 -4.54889 31.2296 110 126 98
-33.1719 -4.55717 31.3205 38 46 51
-31.8919 -4.79332 30.3224 75 100 58
-32.6465 -4.63699 30.8354 114 140 86
-32.6736 -4.63245 30.8372 114 140 86
-32.2835 -4.72084 30.5564 124 144 98
-31.8997 -4.78925 30.2188 106 128 100
-33.2132 -4.62288 31.0884 101 130 85
-33.2147 -4.62207 31.0855 101 130 85
-32.2511 -4.78152 30.3773 58 80 46
-33.0816 -4.73974 30.7113 132 148 129
-32.8777 -4.80992 30.5318 134 154 122
-32.8484 -4.78247 30.5107 134 154 122
-33.0798 -4.8143 30.525 42 54 66
-31.1836 -11.7063 28.563 53 68 86
-33.2758 -4.85189 30.5184 136 162 134
-24.4814 -7.94949 23.6364 136 128 130
-33.8374 -5.04791 30.4866 90 114 144
-36.3769 -6.74128 31.4732 104 90 91
-36.3203 -10.6814 31.0996 128 112 113
-32.1764 -5.87902 28.6414 142 176 146
-36.201 -10.2556 31.0114 204 194 194
-32.6924 -8.11413 28.7284 224 201 217
-33.2238 -5.88795 29.2359 225 196 212
-33.738 -7.27788 29.3704 212 210 228
-36.4552 -12.8014 30.6241 88 94 96
-32.4859 -9.51247 28.1696 50 64 79
-33.6442 -7.77015 29.1303 50 63 80
-31.4824 -10.7668 27.272 32 52 51
-33.4032 -8.2448 28.883 52 52 61
-31.4126 -11.43 26.8778 213 203 202
-30.9244 -12.6319 26.3141 178 176 178
-35.4162 -11.2021 29.5477 234 202 211
-33.2417 -6.95945 28.3832 54 56 66
-30.8069 -13.7418 25.9658 56 49 58
-35.9491 -7.34945 30.1205 62 94 90
-35.8424 -7.27018 29.9907 202 192 200
-33.4646 -11.2313 27.9185 49 51 56
-35.1142 -14.1817 28.4684 129 132 136
-35.1142 -14.1817 28.4684 129 132 136
7.73162 -47.4842 -14.0728 78 76 74
-3.53578 -9.20407 1.42777 102 103 103
-25.4024 -5.99869 31.6786 176 87 86
-27.7386 -5.08538 31.871 154 84 45
-19.4841 -7.02224 26.0725 142 126 104
-29.1301 -4.63404 31.0512 152 139 111
-29.1301 -4.63404 31.0512 152 139 111
-39.2832 -6.7688 37.4507 74 138 118
-39.7446 -8.39428 37.6519 74 144 122
-31.2486 -3.34472 32.0508 98 105 58
-30.2192 -4.10848 31.1417 94 103 58
-30.1055 -4.48288 30.998 51 61 27
-29.97 -4.45627 30.8278 103 114 70
-31.1689 -4.36084 31.5542 4 8 0
-38.1791 -7.86318 36.0407 84 81 72
-38.3163 -7.94371 36.1049 52 93 78
-29.8575 -4.41445 30.3956 110 124 70
-33.6371 -3.47354 32.7146 61 56 22
-39.5077 -7.62856 36.3703 86 165 152
-24.0817 -6.70358 26.0912 68 22 4
-32.0756 -4.31731 31.3086 26 26 28
-32.2174 -4.38713 31.3568 102 122 79
-32.0069 -4.56152 30.8712 92 114 56
-32.0508 -4.53688 30.867 92 114 56
-32.9088 -4.35765 31.4397 70 86 60
-32.9109 -4.34998 31.4438 70 86 60
-30.6451 -4.88354 29.8188 108 128 86
-31.5708 -4.72043 30.446 28 32 28
-32.4569 -4.46313 30.7141 100 120 80
-31.5513 -4.86138 30.0925 24 32 30
-33.313 -4.65824 30.9512 115 136 111
-26.1151 -7.21864 25.2083 186 98 76
-33.9941 -5.51282 30.5698 222 210 228
-33.9816 -5.64483 29.6598 220 218 238
-35.5234 -6.9918 30.1091 201 188 200
-34.4533 -6.35816 29.435 64 55 71
-8.61349 -11.846 10.5235 158 160 156
-8.9053 -11.9773 9.96297 106 99 90
-9.2649 -12.1354 9.49474 113 97 75
-9.29641 -11.8523 9.13316 152 149 142
-9.49154 -11.7301 8.83829 152 150 146
-9.49651 -12.2216 8.096 101 98 88
-36.4029 -8.43967 39.2096 61 70 60
-35.8164 -8.00444 36.5425 163 128 118
-36.1178 -7.95322 35.517 171 128 114
-33.4976 -4.38829 31.8327 48 55 23
-33.5914 -4.39282 31.8969 214 171 172
-33.3581 -4.53094 31.2044 88 114 80
-33.459 -4.6693 31.0468 39 54 52
-31.9112 -5.21175 29.4751 112 138 118
-33.3777 -4.90442 30.448 74 94 68
-33.3742 -5.16691 30.1452 57 71 84
-28.8687 -4.66177 31.2243 156 103 72
-32.4305 -4.35979 31.6377 50 64 18
-31.8891 -4.33377 31.3 39 30 32
-32.9946 -4.40605 31.5913 30 32 28
-33.0402 -4.45906 31.4067 38 36 39
-31.3052 -4.85154 30.0676 106 128 72
-31.6934 -4.74768 30.3582 88 106 69
-31.4468 -4.80176 30.1273 94 118 70
-30.8637 -4.61306 30.3609 27 21 14
-31.0677 -4.1409 31.6647 48 57 33
-32.3167 -4.18245 31.9245 62 76 29
-32.1927 -4.28166 31.5672 107 122 66
-32.6653 -4.54331 30.9929 32 37 27
-29.0356 -4.86443 33.1803 170 153 138
-27.519 -4.9683 31.4987 185 152 123
-30.5768 -0.388949 33.2062 150 143 110
-30.7388 -4.2365 32.6136 114 112 62
-30.204 -4.37373 32.1151 108 106 68
-30.9379 -4.19805 32.3136 108 108 54
-29.7226 -4.51354 31.2832 94 100 59
-31.5128 -4.27846 31.5487 78 92 54
-31.8361 -4.5958 30.8636 86 106 60
-33.1956 -4.46342 31.5387 90 112 76
-33.3638 -4.53507 31.2106 90 116 86
-32.9696 -4.79483 30.4269 127 151 127
-29.3229 -5.33185 32.6078 112 108 64
-33.0618 -1.77093 31.8588 46 66 33
-32.2912 -2.86519 31.1324 93 116 84
-35.1699 2.02435 32.178 214 242 254
-34.0256 0.601485 30.7483 86 104 88
-37.3482 31.4706 35.6115 86 82 56
-26.689 -4.26141 33.2245 44 15 4
-27.1673 -4.7612 32.8916 142 87 54
-30.9026 -7.28314 35.0407 79 79 28
-30.5949 -7.40662 34.4901 138 137 84
-32.2717 -7.42308 35.4442 63 54 22
-29.8135 -7.2614 33.8188 138 124 73
-29.8582 -7.31047 33.7628 162 148 100
-30.1449 -7.62547 33.242 74 70 14
-23.3604 -4.31191 28.4446 146 92 70
-39.449 -8.61166 38.378 80 136 114
-26.7689 -6.17486 29.7399 165 101 81
-27.671 -6.55129 30.212 152 104 79
-30.7293 -7.30255 33.5742 47 49 8
-39.205 -8.64476 38.7054 66 120 92
-7.02934 -6.52183 28.0174 100 88 68
-31.4933 -7.37484 37.9752 96 101 88
-29.7439 -6.15088 36.5699 42 48 24
-27.4101 -6.0933 34.898 148 105 81
-28.5697 -5.95125 35.5828 44 46 36
-28.5697 -5.95125 35.5828 44 46 36
-32.2422 -6.93493 37.7707 194 142 120
-23.1579 -6.63514 31.5371 36 31 22
-32.4713 -6.73725 37.647 184 144 118
-31.4457 -5.88151 36.8286 112 111 45
-32.9557 -6.87997 37.7009 181 145 132
-32.1109 -5.95911 36.9886 194 134 105
-25.2827 -5.65081 32.4149 34 22 16
-33.0993 -6.92885 37.7045 59 76 56
-26.9357 -5.9049 33.4009 160 114 92
-27.4653 -6.04893 33.9313 28 33 24
-27.5255 -5.8797 33.9395 28 33 24
-27.9149 -5.4036 33.9366 24 25 10
-24.7205 -5.54461 31.7839 38 23 14
-32.3764 -4.91678 36.6188 72 54 19
-27.9165 -5.27763 33.3394 25 21 16
-27.804 -5.58926 33.3358 25 21 16
-36.6407 -7.82876 38.9534 64 74 63
-35.8391 -8.07772 38.1927 86 83 75
-29.0421 -4.92503 33.2562 172 153 144
-27.3814 -4.96774 32.1458 180 154 139
-32.6943 -5.29696 35.683 60 48 12
-29.7691 -4.87675 33.0427 170 154 140
-11.3955 -8.23977 20.0086 76 70 56
-30.0922 -4.69269 32.1831 102 100 66
-29.6276 -4.72079 31.8379 107 102 68
-30.2233 -4.60075 32.0146 115 112 76
-29.5393 -4.64446 31.4532 47 46 22
-33.3589 -4.65436 33.7645 207 150 131
-12.2074 -9.6192 19.2829 142 129 106
-33.3552 -4.47766 33.2843 64 65 22
-33.4131 -4.70453 33.3444 202 158 143
-30.9244 -4.67508 31.6126 79 86 61
-30.1938 -4.85152 30.2703 26 22 22
-30.1204 -4.86993 30.2702 30 26 28
-32.9496 -4.48766 31.6187 30 36 33
-38.4336 -8.10651 35.3783 216 244 248
-37.1824 -7.87106 34.3426 162 128 126
-32.3311 -4.63813 30.8832 24 27 31
-33.2419 -4.60693 31.4709 90 112 78
-33.1059 -4.75233 31.3513 32 38 40
-33.0025 -4.64447 31.2497 106 122 90
-32.4934 -4.76673 30.5125 115 136 92
-33.4111 -4.70587 31.0886 34 40 36
-12.8255 -9.13243 16.5632 137 128 111
-32.7303 -5.10324 29.9588 122 150 93
-28.3639 -5.29397 26.8127 208 153 90
-33.7964 -5.17392 30.4925 70 86 113
-32.0717 -5.20898 29.2912 128 154 128
-13.3476 -6.0818 16.061 114 97 71
-33.3671 -5.20431 29.9199 190 188 201
-33.3502 -5.23911 29.9194 190 188 201
-12.9661 -8.86034 15.382 120 98 76
-28.7492 -5.58859 26.1891 226 243 236
-32.4883 -5.90075 28.7621 161 200 174
-34.1196 -5.67486 29.7404 92 113 140
-36.5256 -6.93466 31.2547 90 86 88
-36.474 -6.85039 31.1774 218 190 194
-28.7481 -6.20115 25.4635 220 222 199
-32.9428 -6.07064 28.4213 226 193 205
-33.7167 -5.92856 28.9686 208 192 206
-34.5006 -6.21216 29.2897 201 199 208
-34.5309 -6.18767 29.2926 201 199 208
-35.6001 -6.61958 29.9082 200 188 196
-28.037 -5.35131 33.6452 174 154 144
-32.3831 -6.03871 35.9988 66 51 16
-29.535 -4.64551 31.8103 76 72 50
-33.3341 -4.54998 34.0962 206 148 130
-30.2591 -4.51254 31.8781 75 74 50
-33.1075 -4.5601 33.7593 64 74 25
-28.6482 -4.83953 30.6797 194 172 168
-10.1976 -12.0393 18.289 88 79 66
-10.7455 -14.9981 18.1207 168 170 162
-10.3371 -14.5201 17.2261 104 80 50
-29.8464 -4.67136 30.2994 92 105 50
-29.2225 -4.93879 29.8298 201 198 208
-10.1002 -12.9586 15.5371 147 139 120
-33.0127 -4.89974 30.7331 121 140 106
-32.9817 -5.19841 29.7934 116 144 111
-34.1059 -7.93621 30.4146 218 226 248
-33.3706 -5.38058 29.854 58 64 82
-33.0858 -5.55605 29.4654 89 116 104
-13.7315 -8.92662 15.5337 190 195 190
-32.9628 -5.62673 29.1876 72 102 95
-25.9374 -11.8292 31.1668 171 112 84
-29.1248 -5.04062 29.458 217 199 206
-33.4566 -5.08185 30.5343 224 189 196
-33.0781 -7.40789 29.5247 180 180 182
-29.9154 -6.23902 27.2247 228 232 206
-32.1574 -5.65983 28.7317 64 82 94
-37.0366 -9.91138 30.9989 119 103 88
-29.4245 -4.77043 31.6394 76 74 55
-36.2791 -5.67099 34.3068 216 209 210
-32.7322 -4.95255 30.2445 112 134 86
-31.8131 -6.9143 37.1545 75 67 28
-26.0526 -6.65438 33.2139 88 62 41
-33.5164 -4.53149 32.2909 217 174 170
-33.3979 -4.54438 32.1836 62 71 39
-33.4133 -4.73772 30.8221 66 73 60
-33.2483 -5.17631 29.8984 50 58 62
-35.6053 -7.31642 29.528 212 194 206
-26.8878 -5.72243 33.0724 152 88 52
-27.9827 -5.05008 31.2263 132 91 69
-33.2079 -4.92864 34.4695 202 146 126
-29.6428 -4.66532 31.8426 100 98 64
-38.8033 -6.39679 36.7558 154 192 173
-33.3615 -4.62261 32.5848 57 60 21
-9.24739 -9.99295 13.9671 144 132 107
-32.6864 -5.33024 29.677 137 164 132
-10.2564 -9.40149 11.9287 90 82 70
-17.3711 -38.8039 31.8252 179 148 130
-31.8597 0.946432 31.8406 60 72 50
-39.3953 31.0463 36.0195 218 249 252
-39.6136 32.5837 36.0502 176 169 162
-17.4042 -38.4414 31.2023 148 88 60
-33.8328 -1.59938 28.6111 206 162 153
3.34497 -1.8994 32.1567 83 80 64
3.45923 -2.99639 32.4493 116 98 66
3.17708 -3.27295 32.1145 100 96 78
3.29818 -3.75603 32.2531 194 184 156
3.39965 -7.37782 32.4697 134 110 78
-27.9314 -6.10017 34.4779 36 36 24
-28.0165 -5.75682 34.0222 172 151 140
-30.4054 -7.02123 35.5921 120 115 62
-29.6521 -5.05404 34.429 27 31 18
-29.4148 -5.23187 34.2549 177 158 150
-36.7251 -7.82883 39.3997 183 172 161
-31.1405 -4.52042 34.5658 76 76 32
-25.3144 -6.14176 31.4277 176 97 94
-36.4659 -7.60063 38.6451 184 175 165
-32.9623 -4.94099 35.2014 200 138 110
-31.1227 -4.12311 33.5798 81 72 15
-36.3536 -9.75697 38.5811 158 148 136
-31.6253 -3.72628 33.4715 61 55 8
-36.8078 -9.16382 37.6737 218 221 226
-38.4525 -7.52164 38.1144 20 70 52
-28.1809 -5.06321 30.8962 161 89 52
-28.9155 -4.80653 31.1338 162 104 74
-28.3785 -4.97286 30.7016 160 100 74
-29.6493 -4.76237 30.7413 102 106 53
-32.1541 -4.33243 31.6059 98 115 56
-32.8914 -4.39012 31.7577 182 191 146
-40.8311 -7.0275 36.4412 112 202 196
-33.2997 -4.66683 30.9602 110 124 96
-32.0451 -5.21677 29.5152 120 149 89
-32.0476 -5.21109 29.5159 120 149 89
-31.7714 -5.2785 29.3115 39 42 49
-41.6222 8.68402 32.4536 184 176 166
-33.0973 -5.42634 29.4274 80 118 94
-36.5349 -6.78707 31.5166 215 183 187
-33.7414 -5.68805 29.4437 219 210 226
-35.7266 -6.27285 30.4378 215 199 213
-34.474 -6.09377 29.3702 72 87 116
-32.5024 -4.52453 31.3005 44 57 20
-32.5024 -4.52453 31.3005 44 57 20
-33.0175 -4.48295 31.4349 32 27 29
-38.5341 -9.79863 34.3652 79 78 68
-33.1387 -4.60698 34.3276 66 65 34
-32.4656 -4.63763 30.7935 100 114 69
-32.7857 -4.74607 30.5832 26 28 18
-31.5575 -6.61202 37.7936 188 182 172
-29.8817 -4.90667 30.3716 18 13 3
-31.7796 -5.18936 29.5047 27 36 26
-32.0319 -5.24023 29.467 140 168 110
-39.3535 -10.2381 34.8622 187 176 166
-29.7732 -4.70546 30.8521 40 46 20
-30.5612 -4.55071 30.9614 86 93 48
-31.1712 -4.56646 30.6262 26 23 9
-30.9688 -4.64301 30.5082 26 21 14
-33.1004 -4.55668 30.9946 104 125 80
-32.2447 -4.7659 30.4683 52 74 30
-26.3647 -6.6003 33.4325 190 144 116
-25.9368 -6.646 33.08 166 114 107
-26.7184 -6.2943 33.3355 188 148 120
-27.6043 -5.41596 32.4395 190 143 127
-24.8648 -6.67694 31.0085 144 46 48
-29.4811 -6.49728 33.5525 166 154 138
-31.6657 -4.29615 33.9718 52 54 13
-39.3438 -6.039 38.3423 76 124 104
-39.4268 -6.10107 38.2132 84 137 117
-30.3734 -4.50448 31.9289 54 49 26
-30.281 -4.70219 31.781 180 174 171
-33.3208 -4.56388 33.6393 58 48 14
-29.3966 -4.78369 30.8206 92 96 62
-39.8568 -5.85481 37.5132 80 146 126
-30.3175 -8.20319 31.7395 18 16 12
-30.7906 -4.67527 31.0762 17 17 4
-30.1689 -4.74907 30.6339 14 16 4
-39.7357 -3.95132 36.4818 79 146 132
-33.4997 -4.36593 32.3507 78 74 44
-32.9065 -4.39539 31.7022 198 210 174
-32.6537 -4.52604 31.1179 28 28 33
-32.5818 -4.84617 30.9444 116 133 88
-31.1813 -4.92416 30.0379 100 121 79
-37.3184 -7.2118 34.391 158 151 151
-32.9028 -4.59264 30.9038 100 124 74
-33.4312 -4.83664 30.5997 70 71 55
-31.3377 -5.63702 28.7455 31 50 52
2.9847 -0.604525 32.1356 182 168 137
2.96777 -0.958593 32.178 184 172 137
3.01284 -1.42846 32.3425 131 110 73
2.76765 -1.65658 31.8764 98 94 80
2.90252 -1.95582 32.0298 94 88 70
17.218 -32.3877 55.6456 107 92 66
3.44329 -3.64984 32.472 131 112 80
17.7571 -35.0957 55.9843 102 82 50
4.10634 -4.31356 32.192 88 82 71
4.03583 -4.84945 32.5128 110 90 59
17.7876 -36.2297 55.5142 142 132 110
2.69275 -5.19915 31.4898 124 103 73
3.05648 -6.6649 32.3553 132 116 83
1.51113 -6.26763 29.6941 140 125 93
1.51113 -6.26763 29.6941 140 125 93
1.31528 -15.3182 27.9381 99 88 70
-28.3661 -5.32633 32.5796 170 151 136
-31.4075 -4.44774 33.7411 105 104 52
-29.5212 -4.80026 32.3184 172 152 146
-29.5658 -4.80541 31.8665 85 85 50
-28.2153 -5.02123 30.5422 201 164 152
-34.9203 -14.3824 39.4949 204 205 206
-29.9704 -5.08363 30.2638 36 22 23
-30.7549 -4.94923 29.9996 98 115 50
-32.1232 -5.75591 28.8179 41 46 57
-33.9986 -5.60479 29.6193 208 198 215
-33.8744 -5.95438 29.3021 224 212 226
-34.4534 -6.13267 29.5104 224 216 238
-36.7618 -8.14777 31.3881 104 108 104
-8.20824 -33.6909 10.5484 126 109 79
4.40963 -4.55974 32.2219 98 92 78
-39.2233 -5.88815 37.0525 86 148 134
-39.2233 -5.88815 37.0525 86 148 134
-32.2287 -4.89276 30.0406 21 27 24
-31.2187 -5.25604 29.1929 26 26 28
-32.2053 -5.60096 29.0902 42 44 52
-34.0134 -5.69608 29.4493 48 62 80
-33.7882 -5.95813 29.2006 220 212 227
-33.7395 -6.0498 28.9454 219 206 228
-30.9249 -5.06321 29.6897 26 19 13
-32.0445 -4.87466 30.1029 28 29 28
-33.459 -4.73209 30.7647 51 56 31
-33.7058 -5.71908 29.247 54 61 74
-36.4349 -6.73122 31.2657 90 82 86
-36.7469 -6.87744 31.5098 226 192 192
-36.7636 -6.13791 30.995 218 185 189
-36.5973 -7.71448 30.5828 46 90 77
4.10948 -11.3521 32.4333 190 181 154
4.12163 -13.5081 32.1475 102 96 82
-27.1591 -5.52795 32.0502 140 86 58
-33.2397 -4.60353 33.9253 65 60 33
-30.9129 -4.40828 31.7111 52 52 29
-40.0285 -4.07556 36.1191 30 92 76
-33.1284 -4.59858 30.8667 20 22 20
-35.9494 -6.28203 30.9362 220 195 206
-36.5676 -6.89709 31.461 72 77 76
-34.4871 -5.92611 29.5741 220 216 238
-36.7449 -7.33896 31.4464 71 67 63
-35.7711 -6.3843 30.0555 96 104 109
-36.8936 -7.86983 31.2905 203 194 190
-36.2905 -7.48151 30.3063 199 199 204
-36.8502 -8.44772 30.754 102 89 91
-36.8502 -8.44772 30.754 102 89 91
-35.959 -7.38274 29.5827 111 110 114
-35.9663 -7.64827 29.6142 90 92 96
-36.0042 -7.77237 29.5995 107 112 117
-36.0735 -7.6506 29.5718 107 112 117
-36.9217 -9.36318 30.3164 192 220 239
-36.7343 -9.50866 30.056 201 223 247
-36.7386 -9.68897 29.9277 48 64 69
-18.574 -34.4137 13.5046 174 161 156
-31.6775 -3.71955 33.4664 62 62 18
-27.9368 -4.62592 31.1643 177 143 128
-28.1841 -4.52514 31.1195 144 104 85
-23.3352 -7.69974 30.2958 156 80 38
-24.5538 -6.81403 29.9259 136 56 50
-20.4791 -8.51052 28.742 149 138 114
-20.6698 -9.22394 29.4909 125 87 68
-22.5219 -7.797 28.8003 146 100 76
-23.8236 -6.40462 28.038 92 57 36
-22.0842 -8.14365 28.427 136 100 68
-22.2881 -8.18144 28.4577 144 102 78
-22.4326 -7.95411 27.3351 146 104 84
-23.6194 -8.09417 26.5499 26 16 6
-30.0155 -6.33307 28.345 216 228 246
-15.733 -17.6889 27.7467 134 130 135
-32.6952 -6.40709 28.0376 56 60 76
-35.1153 -5.86231 28.8242 236 230 249
-28.0552 -8.08408 25.9527 221 236 227
-32.3706 -6.99463 27.573 82 108 139
-28.0853 -8.35508 25.8332 212 186 126
-31.8626 -7.07172 27.1324 220 197 190
-24.3664 -10.166 24.7277 122 154 181
-22.8811 -10.746 24.0741 204 230 244
-22.8811 -10.746 24.0741 204 230 244
-4.56306 -14.6564 13.7862 88 82 74
-6.46082 -12.3996 13.1315 126 109 87
-32.3604 -7.53435 27.1439 221 201 218
-6.31108 -13.0661 12.9875 96 96 94
-25.9933 -10.2098 24.403 49 101 102
-6.26913 -13.2828 12.9327 192 198 200
-26.3924 -9.74297 23.9039 188 236 250
-27.2466 -9.81963 24.5308 88 135 148
-26.0221 -10.3105 24.0474 180 224 232
-27.0565 -10.0083 24.2451 202 238 250
-6.78678 -12.9026 12.2029 98 95 86
-34.008 -8.21426 27.473 222 192 206
-6.72164 -13.2948 12.413 94 89 76
-27.5356 -9.80972 24.1982 205 242 255
-26.3755 -10.5514 24.0433 198 243 252
-6.54103 -13.3531 12.1691 150 152 152
-26.0339 -10.8106 23.9039 192 227 242
-27.4816 -10.2273 24.3209 210 246 254
-26.923 -10.6815 24.1265 36 98 92
-6.92075 -12.9792 11.7023 102 97 86
-26.4347 -10.9971 23.9813 204 239 255
-29.8793 -9.79579 25.3337 42 45 52
-30.0545 -9.53849 25.198 42 45 52
-27.1381 -10.7325 24.2417 38 113 96
-37.227 -8.08049 28.9907 206 232 250
-27.5976 -10.5112 24.3157 66 114 125
-7.12968 -13.151 11.8336 88 77 64
-6.43308 -13.6563 11.9515 90 80 68
-26.8883 -11.0154 24.033 190 230 248
-28.0887 -10.5531 24.4654 204 241 254
-37.2455 -8.21762 28.8541 53 68 65
-28.0799 -10.7883 24.4311 194 233 247
-27.6584 -10.848 24.1072 51 108 106
-27.6815 -11.0421 24.2161 206 244 253
-7.568 -12.693 11.1351 199 204 204
-28.12 -10.9699 24.4518 47 98 98
-37.1481 -8.5731 28.6613 198 220 244
-6.99651 -13.5178 11.2196 89 80 72
-8.77478 -12.0419 11.1107 158 140 122
-8.89811 -11.9763 10.9211 158 140 118
-5.12074 -11.989 7.95905 90 88 82
-37.2402 -9.07538 28.6213 70 85 101
-37.098 -9.48277 28.651 195 212 226
-8.10125 -12.5349 10.3817 163 162 159
-36.2405 -9.42428 27.9302 161 114 135
-37.2451 -9.51236 28.7446 45 56 58
-5.58561 -22.262 17.0606 158 154 142
-27.4726 -12.5793 24.24 49 48 48
-5.41912 -22.6639 17.1911 173 165 156
-31.747 -11.126 25.9491 205 156 131
-6.97605 -13.8188 10.3882 107 101 92
-28.2082 -12.2547 24.3861 161 177 184
-9.86479 -10.9997 9.89626 142 142 138
-8.14898 -12.8902 10.3565 150 130 108
-25.4838 -14.0039 23.7823 209 220 238
-28.8895 -12.4991 24.6951 206 226 248
-31.3954 -11.8099 25.7971 62 112 100
-7.74968 -12.8438 9.60067 160 142 113
-29.1153 -12.6718 24.8773 75 89 108
-44.6492 13.9426 12.5878 196 178 178
-7.61922 -13.2529 9.81246 185 188 184
-27.9512 -13.8463 24.9801 162 190 192
-8.63598 -12.501 9.82077 85 76 67
-31.8858 -11.8628 26.0329 68 110 102
-7.77024 -13.0526 9.57604 90 81 68
-29.9132 -12.5565 25.1708 82 92 108
-30.6722 -12.3535 25.5321 102 112 130
-8.95029 -12.2521 9.64167 86 76 64
-30.1314 -13.0865 25.6046 112 118 132
-8.19139 -11.7182 8.42798 131 112 83
-7.80184 -13.2746 9.4054 170 172 164
-8.5085 -11.4583 8.27332 177 161 133
-8.09415 -12.3465 8.71256 121 104 74
-8.71278 -10.2199 7.29348 172 161 139
-9.00356 -12.3485 9.27291 91 80 68
-9.23622 -11.9623 8.76265 91 82 70
-7.96888 -13.0528 8.70073 168 150 122
-8.53357 -11.3959 7.69325 195 185 158
-8.2646 -11.3775 7.46228 89 88 86
-12.3655 -9.08881 8.39034 85 76 62
-8.35021 -12.797 8.40001 158 142 113
-8.2901 -11.6226 7.31396 90 87 79
-9.91316 -10.0734 7.04266 174 161 130
-11.081 -9.70114 7.47354 200 190 170
-8.38972 -12.2034 7.52619 94 90 84
-8.40841 -12.891 8.06734 160 141 113
-10.8669 -10.1126 7.43456 194 184 163
-5.56982 -15.051 7.61476 92 88 84
-8.46002 -12.8087 7.75891 110 90 66
-8.9193 -11.4102 6.93408 132 116 86
-8.40942 -12.6521 7.55782 170 161 141
-10.8588 -11.2815 7.24871 86 81 75
-8.76209 -12.8639 7.01157 171 156 130
-9.74981 -13.4524 8.03464 164 150 122
-9.05406 -13.3724 7.16279 80 75 72
-8.86898 -13.2287 6.90637 170 154 124
-9.16061 -13.5523 6.95081 153 139 118
-6.64901 -16.1487 6.92048 160 144 120
-20.3374 -26.3613 24.5799 182 170 161
-9.03205 -14.3519 7.05467 76 70 64
-11.5347 -12.4083 6.80168 135 124 106
-9.1503 -15.6233 6.95563 82 78 74
-8.66448 -20.4149 6.5304 84 80 76
-9.77752 -19.8523 6.15016 144 129 102
-10.9939 -19.9116 6.49041 160 150 130
-10.5039 -23.1667 6.16834 88 80 72
-10.973 -23.3747 6.157 147 132 111
-10.7649 -24.1488 6.10912 144 131 107
-10.938 -24.5402 6.0826 142 126 104
-11.0494 -24.0535 5.78798 82 76 72
-13.1308 -22.8281 5.83711 138 124 97
-12.0346 -25.2099 5.82335 141 126 96
-15.5453 -23.1134 3.95058 171 163 149
-15.5453 -23.1134 3.95058 171 163 149
-16.4501 -26.0028 3.45424 118 98 65
-13.8406 -30.8494 3.5925 129 110 76
-24.6276 -24.6102 7.77615 142 108 90
-17.4843 -25.8154 3.03143 132 112 79
-4.92465 -14.3018 14.8472 136 118 94
-5.17241 -14.0373 14.4515 90 82 70
-5.17968 -13.9086 14.3229 132 132 132
-26.6732 -10.2774 24.2388 51 113 110
-6.90009 -16.299 15.2668 216 246 250
-27.8265 -10.1629 24.5247 80 127 140
-27.6392 -10.2882 24.3174 210 248 255
-26.2682 -10.8661 23.9491 203 242 254
-6.75408 -16.7384 15.0495 128 134 126
-28.0517 -10.3518 24.5538 197 247 254
-27.8543 -10.5265 24.3871 208 246 255
-27.6494 -11.5821 24.896 52 107 102
-27.3897 -11.2254 24.328 50 110 106
-27.4682 -11.5311 24.2991 92 140 152
-28.2264 -12.7086 24.6994 168 213 211
-28.1199 -13.1859 24.7899 154 193 196
-10.6989 -18.5145 6.67469 172 163 142
-10.761 -18.9744 6.62782 164 154 137
-10.9007 -18.7124 6.37243 80 76 72
24.2116 -25.3697 61.6997 115 106 84
1.9071 -17.2153 24.0778 161 154 142
-0.371446 -26.4536 37.4593 130 114 81
0.946893 -16.7723 22.6974 164 158 145
-3.05897 -13.4634 21.3311 95 82 63
-17.1291 -11.0352 28.6178 96 82 62
-21.8839 -8.25011 28.2713 128 90 70
-22.868 -7.83082 28.3342 148 92 60
-21.3504 -8.31567 27.2446 124 112 102
-0.677575 -17.5491 22.1649 226 250 251
-1.6632 -16.7827 21.3412 102 100 86
-23.087 -8.17626 26.9577 154 116 97
-6.25732 -7.44347 12.3153 148 139 112
-2.3348 -15.524 17.9426 156 142 117
-5.36178 -8.0347 11.5904 152 141 112
-5.36178 -8.0347 11.5904 152 141 112
-2.82653 -14.581 16.5964 94 80 62
-24.1021 -8.78301 25.7202 26 27 32
-5.59257 -19.5539 23.0447 154 170 172
-5.59257 -19.5539 23.0447 154 170 172
-4.4129 -15.2104 17.5357 78 72 60
-6.28583 -14.3061 17.3012 83 77 62
-3.65733 -15.0256 16.1916 108 95 68
-8.50551 -18.0276 22.5291 127 124 110
-4.23124 -14.4869 15.2649 78 61 44
-5.30336 -13.5536 14.8142 120 116 112
-23.4229 -9.64355 23.9487 114 108 108
-5.37193 -11.3823 12.3128 156 146 117
-4.42066 -14.2757 14.3949 157 148 132
-5.68631 -14.4718 15.294 160 151 126
-27.243 -9.00659 25.4985 207 172 123
-4.42091 -14.4885 14.2882 88 86 80
-4.45054 -18.3769 18.1163 132 121 98
-27.1566 -9.06342 25.3576 104 85 70
-4.26767 -16.7746 16.266 91 84 68
-4.27581 -18.8442 18.2844 74 68 57
-5.82004 -13.3739 13.8918 124 127 129
-4.79589 -14.1538 13.669 162 154 136
-4.51024 -14.8922 14.0298 94 88 86
-4.25843 -15.8395 14.7235 98 77 54
-4.76125 -14.6011 13.7064 148 150 148
-4.76125 -14.6011 13.7064 148 150 148
-4.81017 -14.2649 13.3135 158 148 130
-4.81017 -14.2649 13.3135 158 148 130
-5.11533 -14.4445 13.6765 90 86 82
-5.72294 -13.9912 13.6872 156 146 126
-4.03911 -18.7442 16.8123 83 76 65
-24.3393 -10.6236 23.6313 32 36 45
-5.42887 -13.9799 12.9842 103 103 96
-13.5214 -13.7801 18.596 125 121 111
-26.4656 -10.2447 24.5616 74 116 130
-5.34912 -14.2638 12.9042 174 180 177
-6.41701 -13.4302 12.8231 90 82 69
-6.56231 -16.1914 15.5805 96 89 76
-6.85501 -9.91404 9.54169 146 136 110
-4.46053 -16.5468 14.0723 92 72 45
-7.34727 -15.5728 15.2445 196 208 212
-4.64769 -16.5851 14.1394 144 125 100
-7.45966 -15.4925 15.0346 160 179 189
-6.95837 -16.1747 15.0224 168 192 198
-25.3153 -11.471 23.8794 50 84 83
-27.1029 -10.7247 24.4162 197 246 254
-26.0634 -11.2052 24.0555 204 240 254
-6.05167 -13.9093 11.9334 174 177 174
-4.55727 -17.9378 14.431 164 152 123
-7.40889 -9.29406 8.22446 130 110 86
-5.93526 -16.1587 13.5295 94 78 52
-6.36732 -13.7539 11.5186 170 174 168
-6.62209 -9.86245 8.08044 200 196 176
-8.08397 -8.54579 7.87848 85 82 74
-5.93471 -14.6435 11.7627 167 153 134
-5.53829 -21.1922 17.3721 154 148 130
-8.073 -9.82653 8.77517 134 120 94
-6.40368 -13.8899 11.0723 146 147 148
-6.06908 -21.3542 17.5759 191 190 188
-7.78167 -9.97466 8.49633 122 106 78
-7.9948 -9.11855 7.84158 108 106 96
-8.24265 -8.71797 7.48879 182 168 142
-7.88673 -9.99832 8.28581 182 168 140
-6.71826 -10.7779 7.84935 91 92 84
-6.6455 -15.3127 11.6862 115 96 70
-6.70228 -10.663 7.48469 175 162 136
-7.59451 -11.4256 8.75533 140 124 98
-31.4804 -11.2047 25.8755 46 38 35
-8.35208 -10.554 8.38368 131 112 85
-29.4012 -12.6124 25.142 203 230 247
-29.5972 -12.6372 25.2739 204 232 248
-28.1452 -12.9758 24.3119 76 72 74
-31.966 -11.9916 26.2191 164 195 202
-32.5541 -11.8178 26.4156 186 184 182
-27.8522 -14.005 24.8631 98 114 116
-7.29134 -18.4846 13.7875 66 54 40
-30.103 -13.1017 25.621 140 148 160
-30.5571 -12.8792 25.7675 160 166 180
-7.30661 -12.6184 8.34394 176 160 132
-8.23334 -10.8392 7.53927 94 94 93
-8.23334 -10.8392 7.53927 94 94 93
-8.25145 -11.119 7.76416 194 188 162
-7.7323 -11.3338 7.4089 83 78 74
-7.14827 -13.8325 9.08559 102 94 77
-7.39171 -13.3592 8.74367 100 80 56
-7.31617 -12.1949 7.64903 90 87 77
-8.25541 -11.1896 7.19782 177 162 134
-7.66314 -11.9909 7.22267 176 162 139
-7.681 -14.1553 8.8248 104 84 64
-8.45399 -12.0097 7.52252 88 84 76
-8.15341 -12.1015 7.28877 80 78 74
-8.0542 -12.6504 7.63535 156 148 124
-7.71319 -14.7806 8.91379 122 104 76
-7.71319 -14.7806 8.91379 122 104 76
-7.95294 -13.8206 7.83788 127 125 121
-8.46043 -14.0247 6.64269 122 104 79
-8.9023 -15.3958 6.81875 152 138 115
-8.79997 -15.7331 6.70919 116 102 80
-8.9515 -16.2905 6.85414 76 73 65
-9.13715 -16.3169 6.67268 149 138 116
-9.34503 -17.4298 7.07078 160 146 120
-9.33987 -18.0105 6.96426 170 158 136
-9.05426 -18.0455 6.51842 148 132 112
-9.10115 -18.5201 6.82584 82 76 67
-9.63129 -18.917 6.19734 152 138 114
-10.1506 -15.7653 3.21508 128 116 94
-9.4931 -21.3304 6.32631 85 82 81
-9.99108 -21.91 6.42528 166 158 140
-10.3677 -22.0993 6.06574 78 71 72
-10.7831 -22.541 6.29353 146 136 115
-13.3015 -26.8381 3.30609 92 77 53
-13.199 -27.1842 3.00279 96 82 60
-13.5562 -26.9601 2.19914 148 136 119
-13.7332 -26.982 1.77551 154 142 126
-26.656 -6.48216 24.8752 166 97 85
-11.0517 -9.75799 15.2062 205 202 189
-27.2894 -8.99851 24.3616 13 30 38
0.930022 -18.0125 19.8197 140 127 101
-5.03966 -13.7962 14.1479 92 88 84
-5.33402 -13.9636 14.0692 90 86 75
-5.35288 -14.0021 13.868 98 94 82
-5.55606 -13.7715 13.5701 160 163 162
-26.3914 -9.67517 24.2116 48 106 102
-26.8218 -9.66208 24.3053 74 120 133
-26.1525 -9.89527 24.0167 40 90 90
-26.8933 -9.68755 24.3498 194 243 253
-26.432 -10.0895 24.0227 204 250 254
-26.0929 -10.3182 23.9087 194 230 243
-26.6392 -10.3009 24.2599 42 104 100
-26.4348 -10.0687 23.7732 86 132 142
-26.3186 -10.338 23.9071 196 238 250
-26.623 -10.301 24.1082 179 233 239
-27.2435 -10.0729 24.3023 57 98 109
-27.6598 -9.95612 24.4355 202 250 254
-26.1061 -10.6406 23.9233 81 119 130
-25.4931 -11.1219 23.8548 71 92 94
-27.3212 -10.2471 24.2973 58 98 114
-7.16909 -12.5796 11.6839 178 165 146
-6.88552 -13.2381 12.1271 96 86 72
-26.8644 -10.936 24.4625 50 122 106
-26.1115 -10.9453 23.91 68 107 119
-27.0511 -9.17685 22.7957 18 38 42
-26.3703 -10.8773 23.9742 66 108 123
-26.8029 -10.6389 24.0226 50 113 106
-27.5205 -10.3245 24.2113 63 112 116
-25.5486 -11.3509 23.714 60 99 94
-27.1382 -10.7321 24.2415 43 120 100
-26.9987 -10.7946 24.0364 40 98 96
-6.79426 -16.6533 14.9052 223 250 252
-27.9402 -10.4413 24.3439 213 252 254
-26.9924 -11.0282 24.1579 199 252 249
-27.0024 -10.9862 24.02 56 106 110
-27.8814 -10.6573 24.3314 206 246 255
-27.8191 -10.6958 24.2345 214 244 254
-28.1672 -10.8012 24.5111 54 110 106
-26.8404 -11.417 24.0938 206 244 254
-7.59121 -12.6716 11.1331 200 206 208
-28.0757 -10.9018 24.3534 199 244 252
-27.5514 -11.7465 24.2998 50 100 101
-28.2506 -12.5345 24.6803 50 100 93
-29.3533 -13.6058 25.5596 200 212 228
-9.92468 -14.0485 8.03995 130 110 82
-11.0561 -12.7411 6.94271 78 70 62
-10.9965 -13.5829 7.15547 157 144 123
-11.822 -12.4647 6.09847 136 118 92
-13.9506 -11.8214 3.45375 132 120 95
-13.9506 -11.8214 3.45375 132 120 95
37.5825 -25.6846 48.712 122 112 94
-17.9677 -8.98134 26.2931 88 76 54
-5.85353 -7.68278 13.2033 161 153 124
-16.6755 -12.3006 26.3251 74 56 41
-17.7888 -14.706 29.26 122 102 92
-20.0838 -12.4984 26.808 208 241 255
-11.174 -10.7341 17.6292 110 88 62
-18.525 -14.2358 26.1683 156 158 170
-29.0737 -7.30354 26.0185 232 235 201
-7.3551 -6.49714 8.91047 123 103 74
-7.53696 -6.24298 8.61322 133 110 81
-6.42267 -13.7274 15.8891 184 176 152
-6.42267 -13.7274 15.8891 184 176 152
-24.1659 -8.94513 23.4246 102 111 116
-7.41404 -6.74657 8.73537 130 106 76
-7.42395 -6.50262 8.42527 148 130 100
-6.63533 -12.7398 14.488 132 115 90
-23.8524 -9.80851 23.7417 202 236 245
-7.12851 -7.50529 8.95549 140 120 90
-24.1778 -9.224 23.2123 125 117 116
-8.09532 -6.57558 8.18159 212 213 192
-7.85886 -6.92875 8.36531 150 132 103
-7.04909 -10.3394 11.3334 152 139 110
-11.0262 -12.6057 16.1346 204 222 224
-7.95587 -7.04315 7.94679 138 137 132
-7.91167 -7.21825 8.04037 110 110 102
-7.85453 -7.37087 8.15475 201 198 176
-10.767 -12.3033 15.299 201 208 210
-7.96671 -7.45131 8.06845 63 62 54
-8.42519 -7.20928 8.10802 186 180 154
-6.77157 -12.7937 12.4805 112 106 92
-25.7608 -9.95501 23.4563 72 96 101
-7.6852 -7.69055 7.87802 100 99 94
-7.62532 -14.461 14.3982 184 174 150
-7.62532 -14.461 14.3982 184 174 150
-8.54643 -7.40359 7.95083 104 102 92
-26.7169 -9.71507 23.5334 186 228 237
-27.9839 -7.7278 22.3844 71 108 121
-7.03081 -15.6854 14.8012 137 146 146
-7.29168 -14.3054 13.6082 110 89 60
-28.1899 -9.51145 24.1372 76 126 128
-8.2296 -7.58154 7.59383 174 161 135
49.7056 -83.7454 40.1286 126 120 104
-26.2123 -10.2761 23.2005 48 86 85
-27.8557 -10.0335 24.1704 203 245 255
-28.3137 -9.98422 24.1369 212 250 254
-24.4832 -11.3343 22.617 156 142 132
-24.4832 -11.3343 22.617 156 142 132
-28.2326 -9.96813 23.9963 197 234 244
-27.2741 -10.5215 23.792 63 112 118
-8.36401 -8.53661 7.86016 90 88 82
-27.9316 -10.3766 23.9508 46 98 98
-27.9316 -10.3766 23.9508 46 98 98
-27.4338 -10.8356 23.7395 186 223 237
-27.1917 -10.9542 23.6417 73 112 125
-28.1278 -10.9704 24.1502 53 98 100
-25.8117 -12.1316 23.4859 38 38 44
-8.28268 -9.50233 8.10903 118 101 74
-8.52834 -8.83235 7.48781 166 156 134
-7.42562 -15.9186 13.1723 73 52 26
-8.20066 -9.32931 7.40668 172 158 130
-8.44872 -9.82964 7.75072 92 91 86
-8.37282 -10.1409 7.71754 98 98 90
-8.16083 -9.9527 7.38744 167 152 128
-7.30173 -18.3259 14.3485 38 32 26
-7.30173 -18.3259 14.3485 38 32 26
-8.88619 -9.71656 7.44251 82 80 76
-27.6645 -13.4494 24.512 64 61 61
-31.4757 -12.0554 25.872 186 221 221
-8.43329 -11.9694 8.84751 180 164 135
-8.75003 -9.38779 6.42591 150 133 104
-8.69401 -10.4784 6.96234 142 124 92
-8.11412 -13.4285 8.55434 94 90 82
-8.1737 -12.3275 7.12564 174 162 129
-9.00607 -14.0375 6.9569 160 148 124
-8.70467 -17.1358 7.18586 159 146 124
-10.3243 -19.8986 6.62296 154 146 126
-8.62925 -24.8656 6.37138 154 142 118
-13.2415 -30.4099 5.28078 106 88 61
-7.83298 -35.4686 2.95919 98 72 43
-7.98254 -34.472 1.93111 102 80 50
-31.8503 -4.54046 31.0369 90 102 61
-39.149 -8.09583 35.5917 193 253 255
-26.5354 -9.83747 24.1032 66 118 128
-26.7813 -9.75427 24.1813 202 248 254
-25.5166 -10.4986 23.7966 68 94 100
-26.6251 -10.1625 23.96 51 100 108
-26.6251 -10.1625 23.96 51 100 108
-27.5526 -10.7263 24.7756 81 129 139
-30.4319 -7.53765 26.4672 216 198 150
-29.9224 -7.94873 25.8764 52 60 70
-27.5211 -9.79823 24.1696 209 247 254
-27.9496 -17.5524 36.442 55 61 26
-15.7616 -36.3697 35.1912 153 90 48
-15.4957 -37.85 32.7197 20 14 8
-15.0663 0.278661 28.0864 188 189 184
-15.0663 0.278661 28.0864 188 189 184
-29.1074 -5.92067 33.9088 170 152 135
-27.3755 -4.94177 32.1097 174 144 126
-24.6101 -3.62396 32.3324 28 23 24
-13.1106 -1.04589 20.03 115 98 68
-26.2728 -2.24348 36.6072 164 162 145
-32.4586 -5.03568 39.0485 38 78 58
-36.6514 -5.25167 40.5794 72 80 71
-36.6514 -5.25167 40.5794 72 80 71
-23.475 -4.35507 28.8253 136 94 64
-23.8468 -4.63228 28.5655 30 28 20
-24.0814 -4.66988 28.1935 50 25 10
-24.0311 -4.66708 28.0771 157 108 82
-23.8902 -4.60488 27.4202 158 114 87
-24.3637 -4.8716 27.4777 175 114 84
-24.291 -2.23793 35.2294 57 80 61
-23.9793 -2.13718 34.9901 70 81 60
-23.4558 -2.10907 34.5195 75 84 64
-23.7893 -2.32558 34.6244 140 143 126
-23.5215 -2.26649 34.4192 167 156 142
-22.5316 -2.11312 33.3246 160 166 154
-23.1661 -2.33448 33.8043 34 62 42
-22.1 -2.12684 32.9524 168 169 160
-22.1 -2.12684 32.9524 168 169 160
-21.9539 -2.1278 32.8031 35 68 50
-22.4322 -2.18511 33.1254 165 170 158
-22.2783 -2.2003 32.9602 34 74 56
-22.108 -2.27723 32.6425 131 136 124
-32.2973 -4.73581 39.3781 44 84 66
-32.4958 -4.97201 39.2985 204 205 204
-32.4958 -4.97201 39.2985 204 205 204
-22.4979 -3.00086 31.8874 26 21 16
-23.2939 -3.32885 32.2323 27 24 18
-33.0432 -5.43813 39.109 126 150 139
-23.0273 -3.33651 32.0078 168 154 140
-32.7164 -5.43708 38.8544 56 78 62
-32.8662 -5.50452 38.9035 130 157 140
-22.8217 -3.29377 31.6926 110 100 90
-33.4056 -5.67187 39.1739 38 82 60
-22.966 -3.36911 31.6986 162 147 134
-22.5609 -3.16335 31.3259 85 78 71
-23.1306 -3.41638 31.7389 29 22 12
-22.6441 -3.31753 31.1386 16 15 9
-22.4841 -3.32009 30.997 91 88 78
-33.1903 -5.92881 38.5603 205 140 119
-26.7483 -5.12206 33.0276 172 145 128
-24.2235 -4.35025 31.1023 162 124 108
-25.3623 -4.73084 31.8594 176 96 96
-28.0864 -6.62458 30.0338 208 190 188
-24.8722 -5.0771 27.3313 168 124 101
-31.0478 5.51039 22.4793 154 123 94
-31.0169 5.38023 22.8108 156 124 97
-30.8847 5.86726 21.3589 134 102 75
-30.9045 5.27887 22.8908 168 130 103
-30.7165 4.86108 23.4469 84 68 44
-30.3337 5.22037 22.3983 96 60 37
-30.7328 4.75126 23.678 88 56 28
-30.2187 5.36522 21.8939 158 132 106
-31.2835 2.64554 27.7494 39 28 14
-32.1114 2.28374 28.655 170 129 104
-32.1114 2.28374 28.655 170 129 104
-31.4832 2.35099 28.3263 139 124 112
-31.5574 2.13778 28.6662 114 98 86
-34.3194 1.18864 29.4005 143 162 138
-34.4136 1.16553 29.386 148 167 146
-32.1027 0.23771 30.5843 187 174 150
-33.8854 0.180743 30.5395 170 138 117
-33.0032 0.137345 30.3767 148 160 135
-32.0042 -0.53422 31.4902 54 70 49
-32.7275 -0.704502 31.4821 59 76 47
-32.8736 -1.37353 31.7453 166 175 150
-34.4065 -0.809736 29.942 85 102 76
-32.7401 -2.76236 32.3097 126 125 68
-32.9132 -2.86983 31.9035 74 80 46
32.6302 6.46206 62.3185 100 74 35
57.592 2.90228 83.1166 174 153 116
-35.1928 11.4489 8.3324 110 84 44
87.5133 -0.14631 107.298 85 75 58
-36.271 11.5356 7.46714 108 82 43
-35.2671 11.4327 8.27596 163 144 106
104.755 -2.9156 121.755 156 131 91
-38.9012 11.7813 5.37479 132 106 70
-32.0257 11.0672 10.9059 72 60 46
-37.5333 11.6324 6.45438 84 74 56
-38.1696 11.6969 5.94594 182 166 134
-38.2703 11.7078 5.86485 126 103 66
-36.1004 11.4332 7.61542 100 72 36
-36.9504 11.5371 6.92572 86 62 34
-36.9504 11.5371 6.92572 86 62 34
-37.3488 11.5795 6.59428 200 191 172
-38.5675 11.7335 5.62578 183 173 148
-38.1644 11.6812 5.94568 154 128 98
-38.4048 11.7126 5.75309 124 122 111
-38.5768 11.7337 5.61767 178 172 150
-37.5173 11.5891 6.46457 172 162 142
-38.6322 11.7398 5.57329 188 177 146
-37.7167 11.6129 6.31112 176 165 146
-38.1857 11.6789 5.92743 154 126 90
-38.088 11.6656 6.0045 143 114 80
-37.484 11.5783 6.48665 71 58 39
-38.129 11.6684 5.9713 84 56 21
-38.129 11.6684 5.9713 84 56 21
-38.5004 11.7197 5.67509 78 70 58
-35.8445 11.334 7.82834 112 86 49
-38.2673 11.6855 5.86082 98 69 35
-38.3938 11.7016 5.75862 108 78 42
-38.5068 11.7173 5.66841 156 133 98
-38.3508 11.6941 5.79254 159 130 96
-37.7638 11.605 6.26515 90 63 31
-36.5261 11.4135 7.26834 146 120 84
-37.8522 11.6096 6.18848 102 74 38
-38.0085 11.6266 6.06171 108 78 42
-38.049 11.6335 6.02659 122 96 57
-36.325 11.3419 7.42715 163 140 102
-37.9625 11.6116 6.09489 118 88 52
-37.1041 11.4461 6.81277 86 71 50
-37.4786 11.5224 6.48529 109 78 42
-37.4786 11.5224 6.48529 109 78 42
-37.6722 11.5562 6.32719 102 72 34
-36.7805 11.3955 7.05036 92 83 66
-37.1642 11.4491 6.73876 142 118 86
-35.8031 11.1864 7.84517 157 132 94
-34.9746 11.0074 8.52369 116 89 54
-34.9746 11.0074 8.52369 116 89 54
-35.6388 11.1334 7.98051 160 138 104
-36.9099 11.38 6.93842 118 92 62
-36.8084 11.3471 7.01582 147 122 86
-37.3757 11.4634 6.55254 122 95 56
-36.5956 11.2943 7.18551 150 128 97
-34.0011 2.03384 26.8668 60 78 53
-35.0808 4.03467 21.7899 52 79 54
-34.839 3.42192 22.9982 56 76 52
-34.839 3.42192 22.9982 56 76 52
-34.714 2.95003 23.5336 162 178 153
-34.3471 2.07083 25.2071 148 156 132
-9.71798 -54.9128 141.777 66 70 41
-33.884 0.890467 27.337 142 152 127
-18.8566 -34.0458 98.0423 74 82 54
-33.1835 -0.786644 30.546 176 190 167
-30.7093 -6.5504 37.8235 122 122 68
-12.9756 -45.8157 101.752 119 120 68
-35.401 5.65078 18.5334 46 79 56
-36.3664 7.17312 14.9629 154 164 142
-35.781 5.65054 18.122 59 72 48
-38.8393 7.14024 13.3867 110 144 116
-38.9374 8.58688 10.7596 112 150 128
-34.1348 1.48682 28.5803 50 83 59
-35.7695 2.29113 25.6331 154 180 164
-34.6712 0.764883 28.0235 58 89 69
-32.9454 -1.23349 31.5637 57 80 54
-33.7114 -0.645721 30.2272 96 106 76
-34.9526 0.156484 27.5425 206 152 128
-34.9526 0.156484 27.5425 206 152 128
-39.1105 9.54996 8.69753 86 118 96
-32.0572 7.81955 10.5799 183 178 156
-26.7173 -13.1789 56.8901 48 78 56
-23.6425 -21.7558 74.1242 42 78 54
-23.6425 -21.7558 74.1242 42 78 54
-25.6352 -16.1347 61.9375 183 199 176
-20.2232 -9.07034 34.4544 168 104 64
3.14716 -9.90453 28.4573 168 156 130
-25.2702 -4.70547 27.5713 82 39 17
-27.5544 -2.17216 23.9461 168 96 57
-32.6131 4.20683 14.9954 181 167 166
-31.2927 2.39831 17.4721 77 48 32
-21.4629 -16.7279 43.0317 168 132 112
-31.2157 5.72257 9.79555 160 141 114
-30.894 5.52849 9.62223 154 138 110
-31.9101 6.00386 9.19999 142 122 96
-30.924 5.52733 9.46894 160 144 116
-29.8263 4.97782 9.7461 150 138 113
-32.6363 6.38146 8.88568 139 120 94
-31.7371 5.88321 8.93696 129 108 78
-32.2555 6.13363 8.7875 172 156 134
-31.5474 5.76578 8.93175 154 134 106
-32.0231 6.00828 8.80101 84 84 86
-32.9738 6.50673 8.52619 156 136 111
-31.6247 5.7938 8.8938 148 128 104
-31.97 5.96562 8.78274 80 80 77
-31.9372 5.965 8.71298 140 146 152
-32.4694 6.20574 8.51357 156 138 111
-31.6608 5.79744 8.62318 214 208 189
-31.3824 5.66714 8.66734 135 114 89
-31.6611 5.7997 8.53751 204 202 191
-32.2332 6.12634 8.37197 186 170 141
-32.2537 6.07115 8.39659 166 147 122
-31.6655 5.80661 8.4158 208 202 190
